ply
format ascii 1.0
element vertex 1012
property float32 x
property float32 y
property float32 z
property float32 I
end_header
-57.5848 -14.2158 15.8930 0.7822
-48.9508 -25.7370 14.8188 0.7953
-27.2230 -39.5631 12.8681 0.8197
-16.5267 -31.6154 9.5589 0.8627
-11.1941 -29.6800 8.4996 0.8769
-10.2170 -41.8141 11.5337 0.8367
-4.8243 -40.4743 10.9218 0.8447
30.3584 -43.6734 14.2518 0.8023
58.5165 -30.4120 17.6706 0.7610
52.1859 20.1089 14.9854 0.7933
37.2295 19.8010 11.2988 0.8398
33.7935 23.6101 11.0460 0.8431
34.2372 30.6912 12.3202 0.8266
33.2823 38.0281 13.5410 0.8112
33.3496 48.9641 15.8740 0.7824
4.4733 8.6575 2.6111 0.9604
3.2212 8.6652 2.4771 0.9624
2.0754 8.6723 2.3893 0.9637
0.9926 8.6789 2.3407 0.9645
-0.0620 8.6854 2.3273 0.9647
-1.1200 8.6919 2.3482 0.9644
-2.2134 8.6986 2.4051 0.9635
-3.3784 8.7058 2.5022 0.9621
-4.6611 8.7137 2.6479 0.9599
-16.2797 23.1837 7.5906 0.8893
-20.5075 22.7677 8.2105 0.8808
-20.8338 2.3326 5.6173 0.9168
-57.5293 -14.7842 15.9158 0.7819
-49.7716 -26.7761 15.1437 0.7913
-26.8595 -39.8413 12.8748 0.8196
-16.1467 -31.6177 9.5127 0.8633
-11.1432 -30.4185 8.6803 0.8745
-9.7970 -41.8167 11.5081 0.8371
-1.7710 -16.1651 4.3573 0.9349
45.2553 -83.6432 25.4822 0.6745
31.0180 -43.7286 14.3654 0.8009
58.5477 -29.7241 17.5938 0.7619
-58.7176 -14.4954 13.9630 0.7801
-52.5302 -27.6190 13.7016 0.7838
-57.6996 -39.9052 16.1965 0.7498
-27.8103 -40.4165 11.3264 0.8176
-17.5876 -33.6449 8.7648 0.8557
-11.9196 -31.6035 7.7979 0.8705
-8.2317 -33.6889 8.0065 0.8673
-1.7002 -14.2639 3.3164 0.9427
33.2121 -86.8058 21.4574 0.6828
28.7940 -54.4499 14.2202 0.7766
29.6447 -42.6466 11.9908 0.8080
58.6051 -51.5381 18.0177 0.7259
58.5165 -30.4120 15.2252 0.7628
51.9276 20.0093 12.8477 0.7958
37.0437 19.7021 9.6866 0.8418
33.6931 23.5400 9.4891 0.8447
34.2372 30.6912 10.6152 0.8280
7.5605 8.6386 2.6503 0.9540
5.8908 8.6488 2.4159 0.9580
4.4733 8.6575 2.2498 0.9608
3.2212 8.6652 2.1343 0.9628
2.0753 8.6723 2.0587 0.9641
0.9926 8.6789 2.0168 0.9648
-0.0620 8.6854 2.0052 0.9650
-1.1200 8.6919 2.0233 0.9647
-2.2134 8.6986 2.0722 0.9638
-3.3784 8.7058 2.1559 0.9624
-4.6611 8.7137 2.2814 0.9602
-6.1251 8.7227 2.4607 0.9572
-7.8495 8.7146 2.7077 0.9530
-63.0952 54.9566 19.3175 0.7093
-22.8972 2.5636 5.3193 0.9097
-58.4183 -15.0127 13.9252 0.7807
-53.4038 -28.7302 14.0002 0.7796
-27.2786 -40.4629 11.2662 0.8185
-17.1833 -33.6473 8.7224 0.8563
-11.6299 -31.7472 7.8057 0.8704
-7.8933 -33.6910 7.9888 0.8676
-1.7704 -16.1599 3.7531 0.9354
22.6211 -41.8095 10.9747 0.8227
29.8386 -42.0660 11.9068 0.8092
58.6111 -50.5626 17.8708 0.7278
58.5477 -29.7241 15.1590 0.7637
-81.7417 -9.9405 16.0060 0.7150
-58.0357 -14.3271 11.6197 0.7838
-64.8975 -34.1215 14.2521 0.7417
-58.9269 -40.7539 13.9267 0.7468
-60.5754 -68.5523 17.7821 0.6888
-23.0345 -33.4758 7.8987 0.8474
-17.5876 -33.6449 7.3795 0.8567
-11.9195 -31.6035 6.5655 0.8714
-7.7369 -31.6640 6.3359 0.8756
-3.7771 -31.6883 6.2032 0.8781
30.4233 -79.5169 16.5492 0.7069
22.0062 -41.6143 9.1504 0.8255
27.9824 -40.2552 9.5296 0.8189
37.7683 -42.3342 11.0278 0.7936
49.6851 -43.6937 12.8611 0.7637
61.9944 -42.4409 14.6038 0.7363
58.4902 -30.3983 12.8131 0.7644
65.6078 -24.5664 13.6176 0.7517
59.1360 14.8975 11.8540 0.7800
52.1859 20.1089 10.8710 0.7962
37.2296 19.8010 8.1966 0.8421
33.7936 23.6102 8.0132 0.8454
9.6225 8.6259 2.5119 0.9487
7.5605 8.6386 2.2314 0.9543
5.8908 8.6488 2.0341 0.9583
4.4733 8.6575 1.8942 0.9611
3.2212 8.6652 1.7970 0.9630
2.0753 8.6723 1.7333 0.9643
0.9926 8.6789 1.6980 0.9650
-0.0620 8.6854 1.6883 0.9652
-1.1200 8.6919 1.7035 0.9649
-2.2134 8.6986 1.7447 0.9641
-3.3784 8.7058 1.8152 0.9627
-4.6611 8.7137 1.9209 0.9605
-6.1251 8.7227 2.0718 0.9575
-7.8664 8.7334 2.2847 0.9532
-10.0421 8.7467 2.5886 0.9472
-22.8366 2.5569 4.4668 0.9106
-81.5370 -10.7037 15.9852 0.7153
-57.1815 -14.6948 11.4761 0.7862
-81.1925 -31.7305 16.9446 0.7010
-58.0292 -40.9547 13.8060 0.7487
-22.6679 -33.6238 7.8823 0.8477
-16.1290 -31.5828 6.8933 0.8654
-11.5908 -31.6404 6.5500 0.8717
-7.4188 -31.6660 6.3219 0.8759
-1.7687 -16.1445 3.1570 0.9360
20.9070 -53.1241 11.0972 0.7924
23.1035 -42.7010 9.4373 0.8205
28.9325 -40.7886 9.7206 0.8156
38.5777 -42.4219 11.1457 0.7916
50.8041 -43.8277 13.0422 0.7608
63.5831 -42.6457 14.8818 0.7320
58.4945 -29.6971 12.7516 0.7654
-60.5766 -14.9543 9.8824 0.7767
-83.3188 -31.6510 14.1165 0.6970
-66.8795 -35.1635 11.9676 0.7364
-78.5488 -54.3246 15.1264 0.6792
-27.8753 -31.5460 6.6676 0.8433
-21.7084 -31.5487 6.0655 0.8563
-16.8674 -32.2672 5.7668 0.8629
-11.9196 -31.6036 5.3497 0.8722
-8.2317 -33.6889 5.4928 0.8690
-4.3101 -36.1598 5.7677 0.8629
20.6994 -54.1017 9.1746 0.7909
22.4816 -42.5132 7.6170 0.8230
27.1741 -39.0924 7.5406 0.8246
37.8059 -42.3763 8.9946 0.7945
48.6932 -42.8214 10.2702 0.7690
61.7447 -42.2700 11.8516 0.7386
58.4902 -30.3983 10.4404 0.7657
66.9655 -25.0748 11.3255 0.7486
65.1128 -7.6041 10.3829 0.7668
64.2691 0.3058 10.1793 0.7708
65.6139 8.2961 10.4750 0.7650
58.7654 14.8042 9.5983 0.7824
52.1859 20.1089 8.8578 0.7973
37.0438 19.7022 6.6454 0.8437
12.3226 8.6093 2.3809 0.9409
9.6225 8.6259 2.0468 0.9490
7.5605 8.6386 1.8182 0.9546
5.8908 8.6488 1.6574 0.9585
4.4733 8.6575 1.5434 0.9613
3.2212 8.6652 1.4642 0.9633
2.0754 8.6723 1.4123 0.9645
0.9926 8.6789 1.3836 0.9652
-0.0620 8.6854 1.3757 0.9654
-1.1200 8.6919 1.3880 0.9651
-2.2134 8.6986 1.4216 0.9643
-3.3784 8.7058 1.4790 0.9629
-4.6611 8.7137 1.5652 0.9608
-6.1251 8.7227 1.6881 0.9578
-7.8664 8.7334 1.8616 0.9535
-10.0421 8.7467 2.1092 0.9475
-12.9341 8.7645 2.4746 0.9387
-78.5134 28.9738 13.2550 0.7125
-22.7771 2.5502 3.6300 0.9114
-84.1173 -11.0424 13.4372 0.7092
-82.7337 -32.3328 14.0689 0.6979
-59.7323 -42.1567 11.5795 0.7437
-27.3481 -31.5493 6.6130 0.8444
-21.2943 -31.5863 6.0335 0.8570
-16.5597 -32.4262 5.7668 0.8629
-11.8584 -32.3710 5.4603 0.8697
-7.8933 -33.6910 5.4806 0.8692
-1.7605 -16.0694 2.5604 0.9366
21.1551 -53.7547 9.1495 0.7914
22.3731 -41.3511 7.4465 0.8266
29.8687 -42.1084 8.1768 0.8113
38.3637 -42.1866 9.0313 0.7938
48.9776 -42.2520 10.2450 0.7695
58.5357 -39.2604 11.1633 0.7517
58.4945 -29.6971 10.3902 0.7667
-64.7683 -34.0535 8.9847 0.7446
-23.0345 -33.4759 4.9894 0.8489
-17.5876 -33.6449 4.6614 0.8581
-11.9196 -31.6036 4.1472 0.8727
-5.7877 -23.6868 2.9939 0.9064
-4.8243 -40.4743 5.0048 0.8485
28.9960 -75.7862 9.9632 0.7211
21.4862 -40.6309 5.6434 0.8309
27.8802 -40.1083 5.9976 0.8213
37.6324 -42.1818 6.9409 0.7963
48.3348 -42.5062 7.9032 0.7715
61.7182 -42.2518 9.1837 0.7398
58.4902 -30.3983 8.0937 0.7667
65.7436 -24.6173 8.6196 0.7536
81.0585 -19.6020 10.2396 0.7146
63.0703 -7.3655 7.7967 0.7742
63.0277 0.2998 7.7389 0.7757
60.0555 7.5933 7.4326 0.7835
59.2162 14.9177 7.4980 0.7818
52.1859 20.1089 6.8669 0.7982
37.0437 19.7021 5.1517 0.8444
12.3226 8.6093 1.8457 0.9412
9.6225 8.6259 1.5867 0.9493
7.5605 8.6386 1.4095 0.9548
5.8895 8.6470 1.2846 0.9587
4.4683 8.6478 1.1952 0.9615
3.2144 8.6471 1.1327 0.9635
2.0753 8.6723 1.0949 0.9647
0.9926 8.6789 1.0726 0.9654
-0.0620 8.6854 1.0665 0.9656
-1.1200 8.6919 1.0761 0.9653
-2.2105 8.6875 1.1007 0.9645
-3.3735 8.6931 1.1449 0.9631
-4.6571 8.7062 1.2123 0.9610
-6.1251 8.7227 1.3087 0.9580
-7.8664 8.7334 1.4432 0.9537
-10.0421 8.7467 1.6351 0.9477
-12.9341 8.7645 1.9184 0.9390
-22.7185 2.5436 2.8070 0.9120
-68.5771 -36.8932 9.5614 0.7306
-22.6679 -33.6238 4.9790 0.8492
-17.1833 -33.6474 4.6389 0.8588
-11.8584 -32.3710 4.2330 0.8703
-7.8933 -33.6910 4.2487 0.8698
-1.7683 -16.1405 1.9937 0.9367
21.2867 -54.0890 7.1371 0.7912
21.8349 -40.3563 5.6339 0.8312
28.2128 -39.7739 5.9875 0.8216
38.3179 -42.1362 6.9930 0.7949
48.9772 -42.2516 7.9421 0.7705
58.4361 -39.1936 8.6394 0.7531
58.4945 -29.6971 8.0548 0.7677
-64.7931 -34.0665 6.4044 0.7453
-27.8753 -31.5461 3.6830 0.8445
-21.7084 -31.5487 3.3505 0.8575
-16.5267 -31.6154 3.1211 0.8665
-11.9196 -31.6036 2.9551 0.8732
-5.7206 -23.4119 2.1085 0.9078
-3.7717 -31.6429 2.7880 0.8799
21.5814 -86.5363 7.8028 0.6990
20.2198 -52.8481 4.9505 0.7968
21.9124 -41.4369 4.1009 0.8284
29.2859 -42.1305 4.4890 0.8138
37.8328 -42.4065 4.9720 0.7960
46.5514 -40.9378 5.4235 0.7796
61.7446 -42.2699 6.5465 0.7405
58.4902 -30.3983 5.7671 0.7675
62.9274 -23.5628 5.8787 0.7635
62.8860 -15.2074 5.6604 0.7712
63.0270 -7.3605 5.5516 0.7751
63.0741 0.3001 5.5183 0.7763
56.8277 7.1852 5.0114 0.7945
58.7655 14.8042 5.3019 0.7840
49.6317 19.1247 4.6534 0.8077
37.0437 19.7021 3.6708 0.8450
12.3226 8.6093 1.3151 0.9414
9.6225 8.6259 1.1306 0.9494
7.5605 8.6386 1.0044 0.9550
5.8747 8.6253 0.9130 0.9590
4.4551 8.6223 0.8491 0.9618
3.1980 8.6028 0.8030 0.9638
2.0753 8.6723 0.7801 0.9648
0.9926 8.6789 0.7643 0.9655
-0.0620 8.6854 0.7599 0.9657
-1.1200 8.6919 0.7667 0.9654
-2.2051 8.6662 0.7824 0.9647
-3.3651 8.6714 0.8138 0.9633
-4.6316 8.6585 0.8591 0.9613
-6.1251 8.7227 0.9325 0.9581
-7.8664 8.7334 1.0283 0.9539
-10.0421 8.7467 1.1651 0.9479
-12.9341 8.7645 1.3669 0.9392
-23.9334 8.8321 2.2319 0.9026
-20.7982 2.3286 1.8296 0.9194
-27.3481 -31.5493 3.6529 0.8457
-21.2943 -31.5864 3.3328 0.8582
-16.1468 -31.6178 3.1060 0.8671
-11.5908 -31.6405 2.9481 0.8735
-5.9274 -25.3001 2.2734 0.9009
-1.7682 -16.1400 1.4205 0.9369
22.3307 -86.0454 7.7774 0.6998
20.9763 -53.3003 5.0113 0.7945
23.9875 -44.3349 4.4101 0.8168
29.8870 -42.1342 4.5195 0.8127
38.3636 -42.1865 4.9888 0.7954
47.4988 -40.9762 5.4883 0.7773
58.4361 -39.1936 6.1559 0.7539
58.4945 -29.6971 5.7394 0.7684
-59.3200 -14.6441 3.2022 0.7829
-64.7964 -34.0683 3.8366 0.7459
-22.2529 -32.3401 2.0573 0.8545
-17.3510 -33.1923 1.9629 0.8607
-11.9196 -31.6035 1.7702 0.8735
-7.7529 -31.7293 1.7118 0.8774
-4.8243 -40.4743 2.1362 0.8494
21.9307 -87.9368 4.7497 0.6956
30.0972 -78.6644 4.4141 0.7136
28.8805 -54.6136 3.2377 0.7808
29.2862 -42.1308 2.6890 0.8142
37.6327 -42.1822 2.9626 0.7974
33.0646 -29.0774 2.3076 0.8383
35.5067 -24.3076 2.2551 0.8417
46.9058 -24.3777 2.7704 0.8092
50.6901 -18.9806 2.8367 0.8051
67.8876 -16.4169 3.6604 0.7560
67.8318 -7.9216 3.5791 0.7607
67.7777 0.3224 3.5521 0.7622
67.7236 8.5629 3.5775 0.7608
59.2162 14.9177 3.2003 0.7830
49.6317 19.1247 2.7875 0.8081
37.0438 19.7022 2.1989 0.8453
12.3226 8.6093 0.7878 0.9416
9.6225 8.6259 0.6773 0.9496
7.5605 8.6386 0.6016 0.9551
5.8693 8.6174 0.5464 0.9591
4.4430 8.5988 0.5072 0.9620
3.1818 8.5592 0.4786 0.9641
2.0753 8.6723 0.4673 0.9649
0.9926 8.6789 0.4578 0.9656
-0.0620 8.6854 0.4552 0.9658
-1.1200 8.6919 0.4593 0.9655
-2.2028 8.6570 0.4682 0.9649
-3.3567 8.6499 0.4863 0.9635
-4.6065 8.6116 0.5118 0.9616
-6.1251 8.7227 0.5586 0.9582
-7.8664 8.7334 0.6160 0.9540
-10.0421 8.7467 0.6979 0.9481
-12.9341 8.7645 0.8188 0.9393
-23.9334 8.8321 1.3370 0.9029
-20.7894 2.3277 1.0963 0.9196
-58.9770 -15.1562 3.1913 0.7836
-21.7793 -32.3057 2.0419 0.8555
-17.0344 -33.3559 1.9629 0.8607
-11.8585 -32.3712 1.8068 0.8710
-7.4277 -31.7035 1.7065 0.8777
-1.7682 -16.1399 0.8509 0.9370
22.9225 -88.3259 4.7823 0.6938
22.5658 -57.3391 3.2293 0.7813
28.8880 -53.3923 3.1815 0.7841
29.8873 -42.1345 2.7073 0.8131
38.3636 -42.1865 2.9884 0.7958
33.0680 -28.5271 2.2888 0.8395
36.2485 -24.3122 2.2874 0.8396
48.0179 -24.3783 2.8223 0.8060
-57.2440 -14.1316 1.0292 0.7899
-64.5533 -33.9405 1.2730 0.7469
-23.5621 -26.6648 0.6211 0.8673
-13.9592 -20.2869 0.4298 0.9062
-10.3176 -19.7376 0.3888 0.9148
-11.9196 -31.6035 0.5896 0.8736
-4.9784 -20.3745 0.3661 0.9195
-2.5716 -21.5752 0.3793 0.9167
0.0616 -25.9041 0.4522 0.9016
23.1762 -92.9309 1.6718 0.6817
33.5116 -87.5886 1.6369 0.6872
28.8805 -54.6136 1.0784 0.7810
24.5411 -35.3046 0.7505 0.8420
34.9700 -39.1976 0.9169 0.8105
33.0646 -29.0774 0.7686 0.8385
35.5067 -24.3076 0.7511 0.8419
46.9057 -24.3777 0.9227 0.8094
52.0399 -19.4860 0.9699 0.8007
59.1361 14.8975 1.0645 0.7835
52.1861 20.1090 0.9762 0.7995
37.2297 19.8010 0.7360 0.8448
12.3226 8.6093 0.2624 0.9416
9.6225 8.6259 0.2256 0.9496
7.5605 8.6386 0.2004 0.9551
5.8693 8.6174 0.1820 0.9591
4.4310 8.5756 0.1685 0.9621
3.1658 8.5162 0.1586 0.9643
2.0754 8.6723 0.1556 0.9650
0.9926 8.6789 0.1525 0.9657
-0.0620 8.6854 0.1516 0.9658
-1.1200 8.6919 0.1530 0.9655
-2.2028 8.6570 0.1559 0.9649
-3.3485 8.6286 0.1616 0.9636
-4.5845 8.5706 0.1697 0.9619
-6.1251 8.7227 0.1860 0.9583
-7.8664 8.7334 0.2052 0.9541
-10.0421 8.7467 0.2325 0.9481
-12.9341 8.7645 0.2727 0.9394
-16.8634 8.6625 0.3309 0.9270
-23.9334 8.8321 0.4453 0.9030
-20.7809 2.3267 0.3650 0.9197
-57.2753 -14.7189 1.0322 0.7893
-64.1417 -34.5070 1.2713 0.7472
-21.3529 -24.6332 0.5690 0.8777
-13.7961 -20.4641 0.4308 0.9060
-10.0383 -19.6566 0.3853 0.9155
-7.0732 -19.3084 0.3589 0.9210
-4.7902 -20.4460 0.3665 0.9194
-1.7682 -16.1398 0.2834 0.9371
0.3231 -27.1718 0.4743 0.8970
34.4728 -87.5945 1.6431 0.6862
28.8880 -53.3923 1.0596 0.7844
23.6745 -33.3759 0.7143 0.8490
35.6513 -39.2039 0.9249 0.8090
33.0680 -28.5271 0.7623 0.8397
36.2485 -24.3122 0.7619 0.8398
48.0179 -24.3783 0.9400 0.8062
-41.5370 -5.0512 -0.7304 0.8459
-47.0874 -11.6243 -0.8466 0.8236
-52.8026 -20.0586 -0.9859 0.7977
-58.3674 -30.6881 -1.1510 0.7681
-62.1529 -42.9851 -1.3191 0.7391
-66.9455 -59.4399 -1.5627 0.6990
-21.3468 -24.1578 -0.5627 0.8790
-13.7566 -19.9924 -0.4236 0.9075
-10.2448 -19.5983 -0.3860 0.9153
-7.1689 -19.0077 -0.3546 0.9219
-4.9254 -20.1576 -0.3622 0.9203
-2.5540 -21.4274 -0.3767 0.9173
0.0606 -25.4816 -0.4448 0.9031
3.1916 -25.7344 -0.4526 0.9015
22.4379 -89.9706 -1.6185 0.6901
31.7233 -82.9145 -1.5496 0.7011
28.8805 -54.6136 -1.0784 0.7810
24.5411 -35.3046 -0.7505 0.8420
30.7452 -34.4621 -0.8061 0.8313
30.6260 -26.9329 -0.7119 0.8495
35.5067 -24.3076 -0.7511 0.8419
46.9057 -24.3777 -0.9227 0.8094
49.0812 -18.3782 -0.9148 0.8109
50.3424 -12.1741 -0.9041 0.8129
96.8375 -11.3090 -1.7018 0.6770
97.4945 0.4638 -1.7018 0.6770
88.1374 11.1439 -1.5507 0.7009
58.7655 14.8042 -1.0578 0.7847
22.2299 8.5659 -0.4158 0.9091
28.0974 14.9439 -0.5555 0.8805
12.3226 8.6093 -0.2624 0.9416
9.6225 8.6259 -0.2256 0.9496
7.5605 8.6386 -0.2004 0.9551
5.8693 8.6174 -0.1820 0.9591
4.4191 8.5526 -0.1680 0.9622
3.1573 8.4934 -0.1582 0.9644
2.0754 8.6723 -0.1556 0.9650
0.9926 8.6789 -0.1525 0.9657
-0.0620 8.6854 -0.1516 0.9658
-1.1200 8.6919 -0.1530 0.9655
-2.2028 8.6570 -0.1559 0.9649
-3.3403 8.6074 -0.1612 0.9637
-4.5727 8.5485 -0.1692 0.9620
-6.1251 8.7227 -0.1860 0.9583
-7.8664 8.7334 -0.2052 0.9541
-10.0421 8.7467 -0.2325 0.9481
-12.9341 8.7645 -0.2727 0.9394
-16.6908 8.5739 -0.3275 0.9277
-23.9334 8.8321 -0.4453 0.9030
-35.0190 8.2924 -0.6282 0.8659
-20.7730 2.3258 -0.3649 0.9198
-41.8751 -5.4971 -0.7372 0.8445
-47.1777 -12.1240 -0.8502 0.8229
-53.2476 -20.8094 -0.9979 0.7956
-58.6766 -31.5669 -1.1630 0.7660
-62.4455 -44.0716 -1.3341 0.7366
-65.8028 -59.5546 -1.5491 0.7011
-20.1702 -23.2689 -0.5375 0.8841
-13.3695 -19.8312 -0.4175 0.9088
-9.9591 -19.5015 -0.3822 0.9161
-7.0149 -19.1491 -0.3560 0.9217
-4.7837 -20.4183 -0.3660 0.9195
-1.7682 -16.1396 -0.2834 0.9371
0.3116 -26.1975 -0.4573 0.9005
3.4373 -25.7104 -0.4528 0.9014
22.5173 -86.7646 -1.5646 0.6986
32.5107 -82.6090 -1.5496 0.7011
28.8880 -53.3923 -1.0596 0.7844
23.6745 -33.3759 -0.7143 0.8490
35.3766 -38.9018 -0.9178 0.8103
30.6300 -26.4239 -0.7061 0.8506
36.2485 -24.3122 -0.7619 0.8398
48.0179 -24.3783 -0.9400 0.8062
-29.5678 0.0000 -1.5496 0.8883
-30.0437 -3.6536 -1.5861 0.8858
-31.5256 -7.7826 -1.7018 0.8780
-30.3555 -11.5314 -1.7018 0.8780
-28.7415 -15.1115 -1.7018 0.8780
-26.7070 -18.4707 -1.7018 0.8780
-24.2820 -21.5596 -1.7018 0.8780
-19.5787 -22.1570 -1.5496 0.8883
-13.5994 -19.7639 -1.2573 0.9084
-10.0773 -19.2778 -1.1400 0.9166
-7.1306 -18.9062 -1.0590 0.9223
-1.4211 -5.8160 -0.3138 0.9763
-0.6974 -5.8507 -0.3088 0.9767
0.0590 -24.7985 -1.2996 0.9054
3.1920 -25.7375 -1.3592 0.9013
7.8576 -31.5070 -1.7018 0.8780
11.6036 -30.3280 -1.7018 0.8780
15.1798 -28.7054 -1.7018 0.8780
18.5341 -26.6630 -1.7018 0.8780
21.6173 -24.2306 -1.7018 0.8780
7.5296 -6.6217 -0.5255 0.9606
8.4322 -5.7727 -0.5355 0.9599
28.2471 -14.6805 -1.6684 0.8803
30.4100 -11.3869 -1.7018 0.8780
31.5622 -7.6325 -1.7018 0.8780
32.2528 -3.7666 -1.7018 0.8780
32.4716 0.1545 -1.7018 0.8780
32.2155 4.0733 -1.7018 0.8780
8.7165 2.1959 -0.4711 0.9646
7.6223 2.9371 -0.4281 0.9678
26.3099 13.9932 -1.5617 0.8875
12.3226 8.6093 -0.7878 0.9416
9.6225 8.6259 -0.6773 0.9496
7.5605 8.6386 -0.6016 0.9551
5.8160 8.5390 -0.5415 0.9595
4.3812 8.4792 -0.5002 0.9625
3.1275 8.4132 -0.4704 0.9647
2.0753 8.6723 -0.4673 0.9649
0.9926 8.6789 -0.4578 0.9656
-0.0620 8.6854 -0.4552 0.9658
-1.1200 8.6919 -0.4593 0.9655
-2.1883 8.6001 -0.4651 0.9651
-3.3147 8.5416 -0.4802 0.9640
-4.5343 8.4766 -0.5038 0.9622
-6.1251 8.7227 -0.5586 0.9582
-7.8664 8.7334 -0.6160 0.9540
-10.0421 8.7467 -0.6979 0.9481
-12.9341 8.7645 -0.8188 0.9393
-16.2080 8.3259 -0.9549 0.9296
-22.6064 8.3424 -1.2628 0.9080
-28.9286 6.8501 -1.5580 0.8877
-20.6778 2.3152 -1.0904 0.9200
-29.5665 -0.2813 -1.5496 0.8883
-30.5793 -4.0143 -1.6163 0.8838
-31.4501 -8.0822 -1.7018 0.8780
-30.2444 -11.8197 -1.7018 0.8780
-28.5964 -15.3843 -1.7018 0.8780
-26.5301 -18.7239 -1.7018 0.8780
-24.0757 -21.7897 -1.7018 0.8780
-19.3671 -22.3422 -1.5496 0.8883
-13.2675 -19.6801 -1.2439 0.9093
-9.8289 -19.2464 -1.1326 0.9171
-6.9159 -18.8791 -1.0537 0.9226
-1.3629 -5.8174 -0.3131 0.9764
-0.6418 -5.8585 -0.3089 0.9767
0.3044 -25.5988 -1.3417 0.9025
3.4375 -25.7119 -1.3595 0.9013
8.1570 -31.4308 -1.7018 0.8780
11.8916 -30.2162 -1.7018 0.8780
15.4523 -28.5597 -1.7018 0.8780
18.7869 -26.4855 -1.7018 0.8780
21.8468 -24.0239 -1.7018 0.8780
7.5360 -6.5011 -0.5216 0.9609
8.6064 -5.7724 -0.5431 0.9593
28.6765 -14.5588 -1.6855 0.8791
-19.4515 -0.0000 -1.7018 0.9249
-19.3092 -2.3482 -1.7018 0.9249
-18.8845 -4.6620 -1.7018 0.9249
-18.1836 -6.9076 -1.7018 0.9249
-17.2168 -9.0522 -1.7018 0.9249
-15.9981 -11.0643 -1.7018 0.9249
-14.5455 -12.9147 -1.7018 0.9249
-12.8800 -14.5762 -1.7018 0.9249
-10.6692 -15.5055 -1.6467 0.9272
-8.2053 -15.6966 -1.5496 0.9314
-2.1634 -5.7361 -0.5364 0.9757
-1.3985 -5.7236 -0.5155 0.9766
-0.6828 -5.7282 -0.5047 0.9771
0.0139 -5.8274 -0.5098 0.9769
2.2824 -18.4033 -1.6224 0.9282
4.7069 -18.8734 -1.7018 0.9249
6.9508 -18.1672 -1.7018 0.9249
9.0931 -17.1952 -1.7018 0.9249
11.1024 -15.9718 -1.7018 0.9249
6.5735 -7.3682 -0.8639 0.9611
6.7791 -5.9616 -0.7898 0.9644
8.2530 -5.6500 -0.8750 0.9606
17.2597 -8.9702 -1.7018 0.9249
18.2163 -6.8210 -1.7018 0.9249
18.9065 -4.5721 -1.7018 0.9249
19.3202 -2.2563 -1.7018 0.9249
19.4513 0.0925 -1.7018 0.9249
19.2978 2.4400 -1.7018 0.9249
8.1460 2.0521 -0.7349 0.9668
7.0918 2.7327 -0.6649 0.9699
15.6376 8.3171 -1.5496 0.9314
12.3226 8.6093 -1.3151 0.9414
9.6225 8.6259 -1.1306 0.9494
7.5605 8.6386 -1.0044 0.9550
5.8051 8.5230 -0.9022 0.9594
4.3394 8.3983 -0.8270 0.9628
3.0520 8.2101 -0.7663 0.9654
2.0753 8.6723 -0.7801 0.9648
0.9926 8.6789 -0.7643 0.9655
-0.0620 8.6854 -0.7599 0.9657
-1.1200 8.6919 -0.7667 0.9654
-2.1765 8.5535 -0.7722 0.9652
-3.2858 8.4672 -0.7946 0.9642
-4.4525 8.3236 -0.8259 0.9628
-6.1251 8.7227 -0.9325 0.9581
-7.8664 8.7334 -1.0283 0.9539
-10.0421 8.7467 -1.1651 0.9479
-12.9341 8.7645 -1.3669 0.9392
-15.7547 8.0930 -1.5496 0.9314
-16.6165 6.1320 -1.5496 0.9314
-17.2352 4.0812 -1.5496 0.9314
-18.0898 2.0254 -1.5925 0.9295
-19.4506 -0.1851 -1.7018 0.9249
-19.2860 -2.5318 -1.7018 0.9249
-18.8393 -4.8414 -1.7018 0.9249
-18.1171 -7.0803 -1.7018 0.9249
-17.1299 -9.2156 -1.7018 0.9249
-15.8921 -11.2161 -1.7018 0.9249
-14.4219 -13.0525 -1.7018 0.9249
-12.7408 -14.6980 -1.7018 0.9249
-10.4127 -15.4454 -1.6297 0.9279
-8.0555 -15.7739 -1.5496 0.9314
-2.1002 -5.7330 -0.5342 0.9758
-1.3412 -5.7247 -0.5144 0.9767
-0.6282 -5.7339 -0.5047 0.9771
0.0695 -5.8402 -0.5110 0.9768
2.5009 -18.7057 -1.6511 0.9270
4.8862 -18.8278 -1.7018 0.9249
7.1233 -18.1002 -1.7018 0.9249
9.2563 -17.1079 -1.7018 0.9249
11.2538 -15.8654 -1.7018 0.9249
6.5273 -7.1778 -0.8488 0.9618
6.8152 -5.8794 -0.7875 0.9645
8.4200 -5.6474 -0.8870 0.9601
17.3442 -8.8055 -1.7018 0.9249
-13.8599 0.0000 -1.7018 0.9457
-13.7586 -1.6732 -1.7018 0.9457
-13.4560 -3.3218 -1.7018 0.9457
-12.9566 -4.9219 -1.7018 0.9457
-12.2676 -6.4500 -1.7018 0.9457
-11.3993 -7.8838 -1.7018 0.9457
-10.3642 -9.2022 -1.7018 0.9457
-9.1775 -10.3861 -1.7018 0.9457
-7.8566 -11.4180 -1.7018 0.9457
-2.9723 -5.6860 -0.7878 0.9745
-2.1229 -5.6287 -0.7386 0.9760
-1.3761 -5.6317 -0.7118 0.9769
-0.6699 -5.6206 -0.6950 0.9774
0.0134 -5.6414 -0.6927 0.9775
1.7059 -13.7545 -1.7018 0.9457
3.3538 -13.4480 -1.7018 0.9457
4.9527 -12.9448 -1.7018 0.9457
6.4792 -12.2522 -1.7018 0.9457
7.9109 -11.3805 -1.7018 0.9457
6.0221 -6.7501 -1.1107 0.9642
6.4054 -5.6330 -1.0473 0.9662
8.1946 -5.6100 -1.2194 0.9608
12.2982 -6.3916 -1.7018 0.9457
12.9798 -4.8602 -1.7018 0.9457
13.4147 -3.2440 -1.6946 0.9459
13.7664 -1.6077 -1.7018 0.9457
13.8598 0.0659 -1.7018 0.9457
13.7504 1.7386 -1.7018 0.9457
7.8896 1.9875 -0.9990 0.9677
7.0699 2.7243 -0.9303 0.9699
11.1424 5.9262 -1.5496 0.9504
10.3455 7.2280 -1.5496 0.9504
9.3973 8.4240 -1.5496 0.9504
7.5605 8.6386 -1.4095 0.9548
5.8051 8.5230 -1.2662 0.9593
4.2919 8.3064 -1.1480 0.9630
2.9796 8.0155 -1.0500 0.9661
2.0754 8.6723 -1.0949 0.9647
0.9926 8.6789 -1.0726 0.9654
-0.0620 8.6854 -1.0665 0.9656
-1.1200 8.6919 -1.0761 0.9653
-2.1765 8.5535 -1.0837 0.9651
-3.2572 8.3935 -1.1055 0.9644
-4.3629 8.1562 -1.1357 0.9634
-6.1251 8.7227 -1.3087 0.9580
-7.8576 8.7235 -1.4416 0.9538
-9.5166 8.2890 -1.5496 0.9504
-10.4476 7.0796 -1.5496 0.9504
-11.2258 5.7666 -1.5496 0.9504
-11.8399 4.3692 -1.5496 0.9504
-13.4397 3.1825 -1.6958 0.9459
-13.7739 1.5422 -1.7018 0.9457
-13.8593 -0.1319 -1.7018 0.9457
-13.7420 -1.8040 -1.7018 0.9457
-13.4237 -3.4497 -1.7018 0.9457
-12.9091 -5.0450 -1.7018 0.9457
-12.2057 -6.5665 -1.7018 0.9457
-11.3238 -7.9919 -1.7018 0.9457
-10.2762 -9.3004 -1.7018 0.9457
-9.0783 -10.4729 -1.7018 0.9457
-7.7476 -11.4922 -1.7018 0.9457
-2.8973 -5.6733 -0.7822 0.9747
-2.0622 -5.6292 -0.7361 0.9761
-1.3191 -5.6305 -0.7101 0.9770
-0.6157 -5.6199 -0.6942 0.9775
0.0672 -5.6517 -0.6940 0.9775
1.8367 -13.7377 -1.7018 0.9457
3.4816 -13.4155 -1.7018 0.9457
5.0756 -12.8971 -1.7018 0.9457
6.5954 -12.1900 -1.7018 0.9457
8.0188 -11.3047 -1.7018 0.9457
6.0075 -6.6062 -1.0964 0.9647
6.4970 -5.6048 -1.0536 0.9660
8.3513 -5.6013 -1.2347 0.9603
12.3584 -6.2743 -1.7018 0.9457
-10.7446 -0.0000 -1.7018 0.9574
-10.6661 -1.2971 -1.7018 0.9574
-10.4315 -2.5752 -1.7018 0.9574
-10.0443 -3.8156 -1.7018 0.9574
-9.5102 -5.0003 -1.7018 0.9574
-8.8371 -6.1117 -1.7018 0.9574
-8.0346 -7.1339 -1.7018 0.9574
-7.0506 -7.9791 -1.6864 0.9578
-6.0907 -8.8516 -1.7018 0.9574
-2.9037 -5.5547 -0.9927 0.9749
-2.1027 -5.5751 -0.9437 0.9762
-1.3616 -5.5725 -0.9086 0.9770
-0.6642 -5.5726 -0.8889 0.9775
0.0133 -5.5713 -0.8824 0.9777
1.3224 -10.6629 -1.7018 0.9574
2.6000 -10.4253 -1.7018 0.9574
3.8395 -10.0352 -1.7018 0.9574
5.0228 -9.4983 -1.7018 0.9574
6.1327 -8.8225 -1.7018 0.9574
6.0336 -6.7630 -1.4355 0.9640
6.4192 -5.6451 -1.3539 0.9660
8.8660 -6.0696 -1.7018 0.9574
9.5339 -4.9549 -1.7018 0.9574
10.0623 -3.7678 -1.7018 0.9574
10.4436 -2.5255 -1.7018 0.9574
10.6721 -1.2463 -1.7018 0.9574
10.7445 0.0511 -1.7018 0.9574
10.6598 1.3478 -1.7018 0.9574
7.8896 1.9875 -1.2886 0.9676
7.0559 2.7189 -1.1976 0.9698
8.6379 4.5942 -1.5496 0.9612
8.0202 5.6033 -1.5496 0.9612
7.2851 6.5305 -1.5496 0.9612
6.4434 7.3622 -1.5496 0.9612
5.5076 8.0862 -1.5496 0.9612
4.4911 8.6920 -1.5496 0.9612
3.2189 8.6592 -1.4632 0.9633
2.0754 8.6723 -1.4123 0.9645
0.9926 8.6789 -1.3836 0.9652
-0.0620 8.6854 -1.3757 0.9654
-0.7481 5.8061 -0.9272 0.9766
-2.4126 9.4815 -1.5496 0.9612
-3.5395 9.1210 -1.5496 0.9612
-4.6147 8.6270 -1.5496 0.9612
-5.6224 8.0068 -1.5496 0.9612
-6.5479 7.2695 -1.5496 0.9612
-7.3775 6.4259 -1.5496 0.9612
-8.0993 5.4883 -1.5496 0.9612
-8.7026 4.4704 -1.5496 0.9612
-10.0559 3.7109 -1.6977 0.9575
-10.4555 2.4758 -1.7018 0.9574
-10.6779 1.1955 -1.7018 0.9574
-10.7441 -0.1022 -1.7018 0.9574
-10.6532 -1.3985 -1.7018 0.9574
-10.4065 -2.6743 -1.7018 0.9574
-10.0076 -3.9110 -1.7018 0.9574
-9.4622 -5.0905 -1.7018 0.9574
-8.7785 -6.1955 -1.7018 0.9574
-7.9664 -7.2100 -1.7018 0.9574
-6.9698 -8.0405 -1.6854 0.9578
-6.0062 -8.9092 -1.7018 0.9574
-2.8395 -5.5602 -0.9888 0.9750
-2.0425 -5.5757 -0.9405 0.9762
-1.3053 -5.5713 -0.9063 0.9771
-0.6102 -5.5701 -0.8875 0.9776
0.0664 -5.5813 -0.8841 0.9776
1.4238 -10.6499 -1.7018 0.9574
2.6991 -10.4001 -1.7018 0.9574
3.9348 -9.9982 -1.7018 0.9574
5.1130 -9.4501 -1.7018 0.9574
6.2164 -8.7638 -1.7018 0.9574
6.0177 -6.6174 -1.4167 0.9644
6.4877 -5.5968 -1.3571 0.9659
8.9234 -5.9850 -1.7018 0.9574
9.5806 -4.8640 -1.7018 0.9574
-8.7549 -0.0000 -1.7018 0.9650
-8.6909 -1.0569 -1.7018 0.9650
-8.4997 -2.0983 -1.7018 0.9650
-8.1843 -3.1090 -1.7018 0.9650
-7.7491 -4.0743 -1.7018 0.9650
-7.2006 -4.9800 -1.7018 0.9650
-6.5468 -5.8128 -1.7018 0.9650
-5.7972 -6.5606 -1.7018 0.9650
-4.9628 -7.2124 -1.7018 0.9650
-2.8936 -5.5354 -1.2141 0.9749
-2.0969 -5.5597 -1.1550 0.9761
-1.3525 -5.5354 -1.1076 0.9770
-0.6598 -5.5357 -1.0836 0.9775
0.0132 -5.5354 -1.0760 0.9777
1.0776 -8.6884 -1.7018 0.9650
2.1185 -8.4947 -1.7018 0.9650
3.1285 -8.1769 -1.7018 0.9650
4.0927 -7.7394 -1.7018 0.9650
4.9971 -7.1887 -1.7018 0.9650
5.8283 -6.5329 -1.7018 0.9650
6.5743 -5.7816 -1.7018 0.9650
7.2242 -4.9456 -1.7018 0.9650
7.7684 -4.0374 -1.7018 0.9650
8.1990 -3.0701 -1.7018 0.9650
8.5096 -2.0579 -1.7018 0.9650
8.6958 -1.0155 -1.7018 0.9650
8.7548 0.0416 -1.7018 0.9650
8.6858 1.0982 -1.7018 0.9650
7.8896 1.9875 -1.5815 0.9674
8.1694 3.1479 -1.7018 0.9650
7.7281 4.1103 -1.7014 0.9650
6.5421 4.5706 -1.5513 0.9680
5.9360 5.3212 -1.5496 0.9680
5.2502 5.9989 -1.5496 0.9680
4.4877 6.5888 -1.5496 0.9680
3.6595 7.0824 -1.5496 0.9680
2.7777 7.4723 -1.5496 0.9680
1.8554 7.7530 -1.5496 0.9680
0.9059 7.9203 -1.5496 0.9680
-0.0569 7.9717 -1.5496 0.9680
-0.7456 5.7861 -1.1340 0.9765
-1.9658 7.7257 -1.5496 0.9680
-2.8841 7.4319 -1.5496 0.9680
-3.7602 7.0294 -1.5496 0.9680
-4.5812 6.5241 -1.5496 0.9680
-5.3353 5.9233 -1.5496 0.9680
-6.0113 5.2359 -1.5496 0.9680
-6.5995 4.4720 -1.5496 0.9680
-7.7709 3.9918 -1.6981 0.9650
-8.2135 3.0310 -1.7018 0.9650
-8.5193 2.0173 -1.7018 0.9650
-8.7006 0.9741 -1.7018 0.9650
-8.7545 -0.0833 -1.7018 0.9650
-8.6804 -1.1395 -1.7018 0.9650
-8.4794 -2.1791 -1.7018 0.9650
-8.1543 -3.1868 -1.7018 0.9650
-7.7100 -4.1478 -1.7018 0.9650
-7.1529 -5.0483 -1.7018 0.9650
-6.4912 -5.8748 -1.7018 0.9650
-5.7345 -6.6154 -1.7018 0.9650
-4.8940 -7.2593 -1.7018 0.9650
-2.8389 -5.5590 -1.2133 0.9749
-2.0353 -5.5560 -1.1502 0.9762
-1.2970 -5.5360 -1.1052 0.9771
-0.6062 -5.5331 -1.0820 0.9776
0.0671 -5.6458 -1.0975 0.9773
1.1602 -8.6777 -1.7018 0.9650
2.1992 -8.4742 -1.7018 0.9650
3.2061 -8.1467 -1.7018 0.9650
4.1662 -7.7001 -1.7018 0.9650
5.0652 -7.1409 -1.7018 0.9650
5.8902 -6.4772 -1.7018 0.9650
6.6291 -5.7188 -1.7018 0.9650
7.2709 -4.8767 -1.7018 0.9650
7.8065 -3.9633 -1.7018 0.9650
-7.3712 -0.0000 -1.7018 0.9702
-7.3173 -0.8899 -1.7018 0.9702
-7.1564 -1.7667 -1.7018 0.9702
-6.8908 -2.6177 -1.7018 0.9702
-6.5244 -3.4304 -1.7018 0.9702
-6.0626 -4.1929 -1.7018 0.9702
-5.5121 -4.8941 -1.7018 0.9702
-4.8810 -5.5237 -1.7018 0.9702
-4.1785 -6.0725 -1.7018 0.9702
-2.8936 -5.5354 -1.4420 0.9747
-2.1010 -5.5706 -1.3745 0.9759
-1.3526 -5.5357 -1.3156 0.9769
-0.6609 -5.5445 -1.2891 0.9773
0.0132 -5.5354 -1.2779 0.9775
0.9073 -7.3152 -1.7018 0.9702
1.7837 -7.1522 -1.7018 0.9702
2.6340 -6.8846 -1.7018 0.9702
3.4459 -6.5162 -1.7018 0.9702
4.2073 -6.0526 -1.7018 0.9702
4.9072 -5.5004 -1.7018 0.9702
5.5353 -4.8678 -1.7018 0.9702
6.0824 -4.1640 -1.7018 0.9702
6.5406 -3.3993 -1.7018 0.9702
6.9032 -2.5849 -1.7018 0.9702
7.1647 -1.7326 -1.7018 0.9702
7.3215 -0.8550 -1.7018 0.9702
7.3711 0.0351 -1.7018 0.9702
7.3130 0.9246 -1.7018 0.9702
7.1479 1.8007 -1.7018 0.9702
6.8783 2.6504 -1.7018 0.9702
6.5080 3.4613 -1.7018 0.9702
6.0349 4.2164 -1.6996 0.9702
5.0879 4.5609 -1.5775 0.9723
4.4205 5.0508 -1.5496 0.9728
3.7784 5.5475 -1.5496 0.9728
3.0811 5.9630 -1.5496 0.9728
2.3387 6.2913 -1.5496 0.9728
1.5621 6.5277 -1.5496 0.9728
0.7627 6.6685 -1.5496 0.9728
-0.0479 6.7118 -1.5496 0.9728
-0.7434 5.7694 -1.3430 0.9764
-1.6551 6.5047 -1.5496 0.9728
-2.4283 6.2573 -1.5496 0.9728
-3.1659 5.9184 -1.5496 0.9728
-3.8572 5.4930 -1.5496 0.9728
-4.4921 4.9872 -1.5496 0.9728
-5.1287 4.4672 -1.5702 0.9725
-6.0906 4.1272 -1.6986 0.9702
-6.5567 3.3681 -1.7018 0.9702
-6.9154 2.5520 -1.7018 0.9702
-7.1729 1.6985 -1.7018 0.9702
-7.3255 0.8202 -1.7018 0.9702
-7.3709 -0.0701 -1.7018 0.9702
-7.3085 -0.9594 -1.7018 0.9702
-7.1393 -1.8347 -1.7018 0.9702
-6.8656 -2.6831 -1.7018 0.9702
-6.4915 -3.4923 -1.7018 0.9702
-6.0224 -4.2504 -1.7018 0.9702
-5.4653 -4.9463 -1.7018 0.9702
-4.8282 -5.5699 -1.7018 0.9702
-4.1205 -6.1120 -1.7018 0.9702
-2.8722 -5.6243 -1.4580 0.9744
-2.0393 -5.5667 -1.3687 0.9760
-1.2970 -5.5362 -1.3127 0.9769
-0.6175 -5.6360 -1.3090 0.9770
0.0658 -5.5354 -1.2780 0.9775
0.9768 -7.3062 -1.7018 0.9702
1.8517 -7.1349 -1.7018 0.9702
2.6994 -6.8592 -1.7018 0.9702
3.5077 -6.4831 -1.7018 0.9702
4.2647 -6.0123 -1.7018 0.9702
4.9593 -5.4535 -1.7018 0.9702
5.5813 -4.8149 -1.7018 0.9702
6.1218 -4.1060 -1.7018 0.9702
6.5727 -3.3369 -1.7018 0.9702
-0.9260 -0.0000 -0.2481 0.9962
-0.9261 -0.1126 -0.2500 0.9961
-0.8952 -0.2210 -0.2471 0.9962
-0.8777 -0.3334 -0.2516 0.9961
-0.8707 -0.4578 -0.2636 0.9959
-0.8078 -0.5586 -0.2632 0.9959
-4.7493 -4.2168 -1.7018 0.9740
-4.2055 -4.7593 -1.7018 0.9740
-3.6002 -5.2322 -1.7018 0.9740
-2.9423 -5.6285 -1.7018 0.9740
-2.2413 -5.9425 -1.7018 0.9740
-1.5075 -6.1696 -1.7018 0.9740
-0.7517 -6.3065 -1.7018 0.9740
0.0132 -5.5354 -1.4832 0.9773
0.7817 -6.3029 -1.7018 0.9740
1.5368 -6.1624 -1.7018 0.9740
2.2695 -5.9318 -1.7018 0.9740
2.9690 -5.6145 -1.7018 0.9740
3.6251 -5.2150 -1.7018 0.9740
4.2281 -4.7392 -1.7018 0.9740
4.7693 -4.1942 -1.7018 0.9740
5.2407 -3.5878 -1.7018 0.9740
5.6355 -2.9289 -1.7018 0.9740
5.9478 -2.2271 -1.7018 0.9740
6.1732 -1.4928 -1.7018 0.9740
6.3083 -0.7367 -1.7018 0.9740
6.3511 0.0302 -1.7018 0.9740
6.3010 0.7967 -1.7018 0.9740
6.1587 1.5515 -1.7018 0.9740
5.9264 2.2836 -1.7018 0.9740
5.6074 2.9823 -1.7018 0.9740
5.2063 3.6375 -1.7018 0.9740
4.7224 4.2333 -1.6993 0.9741
3.9847 4.5529 -1.6212 0.9753
3.2555 4.7798 -1.5496 0.9763
2.6547 5.1378 -1.5496 0.9763
2.0151 5.4207 -1.5496 0.9763
1.3460 5.6243 -1.5496 0.9763
0.6571 5.7457 -1.5496 0.9763
-0.0413 5.7830 -1.5496 0.9763
-0.7391 5.7357 -1.5496 0.9763
-1.4261 5.6045 -1.5496 0.9763
-2.0922 5.3914 -1.5496 0.9763
-2.7278 5.0994 -1.5496 0.9763
-3.3234 4.7328 -1.5496 0.9763
-4.0666 4.5148 -1.6281 0.9752
-4.7819 4.1651 -1.6992 0.9741
-0.8113 0.5498 -0.2626 0.9959
-0.8738 0.4488 -0.2632 0.9959
-0.8731 0.3222 -0.2494 0.9962
-0.8986 0.2128 -0.2474 0.9962
-0.9273 0.1038 -0.2500 0.9961
-0.9271 -0.0088 -0.2484 0.9962
-0.9247 -0.1214 -0.2499 0.9961
-0.8916 -0.2291 -0.2467 0.9962
-0.8821 -0.3447 -0.2538 0.9961
-0.8674 -0.4666 -0.2639 0.9959
-0.8053 -0.5683 -0.2641 0.9959
-4.7089 -4.2618 -1.7018 0.9740
-4.1600 -4.7991 -1.7018 0.9740
-3.5503 -5.2662 -1.7018 0.9740
-2.8886 -5.6563 -1.7018 0.9740
-2.1846 -5.9636 -1.7018 0.9740
-1.4488 -6.1837 -1.7018 0.9740
-0.6917 -6.3134 -1.7018 0.9740
0.0658 -5.5354 -1.4833 0.9773
0.8416 -6.2951 -1.7018 0.9740
1.5954 -6.1475 -1.7018 0.9740
2.3258 -5.9099 -1.7018 0.9740
3.0223 -5.5859 -1.7018 0.9740
3.6745 -5.1803 -1.7018 0.9740
4.2730 -4.6988 -1.7018 0.9740
4.8090 -4.1486 -1.7018 0.9740
5.2746 -3.5377 -1.7018 0.9740
5.6631 -2.8751 -1.7018 0.9740
