ply
format ascii 1.0
element vertex 1010
property float32 x
property float32 y
property float32 z
property float32 I
end_header
-31.9316 0.0000 8.5561 0.8761
-48.0663 -11.8496 13.2649 0.8146
-58.4082 -30.6613 17.6758 0.7610
-25.0792 -36.3468 11.8325 0.8329
-16.4887 -31.4313 9.5105 0.8633
-16.6430 -43.9122 12.5830 0.8233
-11.9764 -48.6392 13.4221 0.8127
16.3675 -43.1132 12.3566 0.8262
24.4613 -46.5662 14.0941 0.8043
49.1227 -33.8746 15.9886 0.7811
49.3474 12.1943 13.6203 0.8102
44.1634 16.7802 12.6589 0.8223
32.7748 17.2283 9.9214 0.8578
24.2996 16.7965 7.9151 0.8849
24.3291 21.5833 8.7145 0.8740
24.8693 28.1114 10.0570 0.8560
3.9015 5.6610 1.8422 0.9719
2.9687 5.6667 1.7141 0.9739
2.1460 5.6718 1.6249 0.9752
1.3944 5.6764 1.5662 0.9761
0.6851 5.6808 1.5332 0.9766
-0.0047 5.6850 1.5233 0.9767
-0.6957 5.6892 1.5358 0.9765
-1.4086 5.6936 1.5716 0.9760
-2.1669 5.6983 1.6335 0.9751
-3.0000 5.7034 1.7267 0.9737
-3.9487 5.7092 1.8600 0.9717
-5.0739 5.7162 2.0480 0.9688
-6.4747 5.7248 2.3158 0.9648
-8.3077 5.7221 2.7030 0.9591
-7.5183 2.8424 2.1537 0.9673
-31.9375 -0.0354 8.5576 0.8761
-48.0485 -11.9016 13.2636 0.8147
-58.3306 -30.7030 17.6626 0.7611
-30.1058 -34.0686 12.1822 0.8284
-25.0390 -36.3745 11.8325 0.8329
-16.4647 -31.4702 9.5168 0.8632
-16.5875 -43.9125 12.5778 0.8233
-11.9779 -48.8784 13.4844 0.8119
16.3976 -43.0489 12.3434 0.8263
24.5297 -46.5709 14.1038 0.8041
-31.9587 0.0000 7.3783 0.8770
-68.6288 -16.9186 16.3185 0.7481
-37.6397 -42.4992 13.1066 0.7921
-23.8535 -34.5704 9.6967 0.8416
-17.5429 -33.4408 8.7183 0.8564
-16.9691 -44.7726 11.0541 0.8216
-12.2438 -49.7252 11.8229 0.8104
22.1288 -89.6566 21.3200 0.6845
16.2349 -42.7640 10.5604 0.8288
23.6432 -45.0087 11.7375 0.8116
49.2285 -55.5222 17.1312 0.7374
52.5335 -46.5007 16.1972 0.7498
49.5203 -34.1487 13.8874 0.7812
49.7680 12.2982 11.8355 0.8102
44.1634 16.7802 10.9071 0.8237
32.7749 17.2283 8.5484 0.8590
24.2996 16.7965 6.8198 0.8858
24.3291 21.5834 7.5085 0.8750
5.9086 6.6789 2.0587 0.9641
3.9015 5.6610 1.5873 0.9722
2.9687 5.6667 1.4769 0.9741
2.1460 5.6718 1.4000 0.9754
1.3944 5.6764 1.3495 0.9763
0.6851 5.6808 1.3210 0.9768
-0.0047 5.6850 1.3125 0.9769
-0.6957 5.6892 1.3233 0.9767
-1.4086 5.6936 1.3541 0.9762
-2.1669 5.6983 1.4075 0.9753
-3.0000 5.7034 1.4878 0.9739
-3.9487 5.7092 1.6026 0.9719
-5.0739 5.7162 1.7646 0.9691
-6.4747 5.7248 1.9953 0.9651
-8.3281 5.7362 2.3346 0.9593
-7.5174 2.8421 1.8554 0.9675
-31.9646 -0.0354 7.3796 0.8770
-68.6216 -16.9974 16.3213 0.7481
-37.5562 -42.4997 13.0939 0.7923
-23.7973 -34.5707 9.6894 0.8417
-17.5142 -33.4762 8.7224 0.8563
-16.9125 -44.7730 11.0495 0.8216
-12.1987 -49.7793 11.8325 0.8103
22.2343 -89.6572 21.3260 0.6844
16.2820 -42.7454 10.5602 0.8288
23.7070 -45.0091 11.7445 0.8115
49.2293 -55.3993 17.1101 0.7377
-32.0243 0.0000 6.2249 0.8777
-68.2559 -16.8267 13.6648 0.7509
-71.3124 -37.4354 15.6556 0.7202
-67.1569 -46.3656 15.8629 0.7171
-38.3946 -43.3516 11.2565 0.7898
-25.2524 -36.5978 8.6430 0.8343
-19.2115 -36.6215 8.0385 0.8449
-14.4210 -38.0496 7.9095 0.8472
-12.4578 -50.5941 10.1282 0.8087
13.4860 -54.6398 10.9396 0.7951
16.6986 -43.9855 9.1453 0.8255
23.1064 -43.9870 9.6581 0.8167
32.3651 -46.8506 11.0686 0.7929
40.7855 -45.9998 11.9499 0.7784
51.0113 -45.1533 13.2421 0.7576
49.6147 -34.2138 11.7149 0.7822
53.0018 -27.7858 11.6324 0.7836
49.5977 12.2562 9.9308 0.8121
44.1634 16.7802 9.1833 0.8249
32.7749 17.2283 7.1973 0.8600
24.2996 16.7965 5.7419 0.8866
24.3291 21.5833 6.3218 0.8759
5.8281 6.5879 1.7098 0.9648
3.9015 5.6610 1.3364 0.9724
2.9687 5.6667 1.2435 0.9743
2.1460 5.6718 1.1788 0.9756
1.3944 5.6764 1.1362 0.9765
0.6851 5.6808 1.1122 0.9770
-0.0047 5.6850 1.1051 0.9771
-0.6957 5.6892 1.1141 0.9769
-1.4086 5.6936 1.1401 0.9764
-2.1669 5.6983 1.1850 0.9755
-2.9985 5.7004 1.2520 0.9741
-3.9487 5.7092 1.3493 0.9721
-5.0739 5.7162 1.4857 0.9693
-6.4747 5.7248 1.6800 0.9654
-8.3281 5.7362 1.9656 0.9596
-10.9878 5.7525 2.4108 0.9507
-7.5174 2.8420 1.5622 0.9678
-31.9914 -0.0354 6.2185 0.8778
-68.2019 -16.8935 13.6577 0.7510
-71.2993 -37.5293 15.6618 0.7201
-38.3095 -43.3521 11.2456 0.7900
-25.1929 -36.5981 8.6365 0.8344
-19.1600 -36.6218 8.0340 0.8450
-14.3926 -38.1017 7.9170 0.8471
-12.4122 -50.6505 10.1368 0.8086
13.5438 -54.6137 10.9374 0.7951
16.7798 -44.0521 9.1630 0.8252
23.1689 -43.9873 9.6638 0.8166
32.4452 -46.8554 11.0782 0.7928
40.8862 -46.0106 11.9645 0.7782
-32.0648 0.0000 5.0786 0.8782
-67.6138 -16.6684 11.0296 0.7543
-91.6708 -34.7729 15.5287 0.6723
-69.4751 -47.9661 13.3716 0.7104
-72.7485 -64.4662 15.3953 0.6746
-32.2549 -36.4192 7.7053 0.8212
-23.8535 -34.5704 6.6523 0.8436
-18.1511 -34.6001 6.1884 0.8536
-13.1032 -34.5724 5.8558 0.8609
-12.4578 -50.5941 8.2527 0.8098
13.0088 -52.7064 8.5984 0.8026
16.4808 -43.4117 7.3546 0.8286
22.9785 -43.7434 7.8260 0.8186
31.2280 -45.2044 8.7020 0.8005
40.0739 -45.1972 9.5671 0.7830
51.0688 -45.2042 10.8021 0.7587
49.1168 -33.8705 9.4497 0.7853
52.5255 -27.5361 9.3931 0.7865
53.6325 -20.3101 9.0832 0.7927
56.0606 -13.7873 9.1437 0.7915
56.1037 -6.7819 8.9506 0.7954
56.1456 0.0311 8.8926 0.7966
51.6422 6.3007 8.2400 0.8100
49.7680 12.2982 8.1196 0.8125
44.1634 16.7802 7.4827 0.8259
32.6808 17.1789 5.8477 0.8611
24.2996 16.7966 4.6786 0.8872
24.3291 21.5834 5.1512 0.8766
5.9008 6.6700 1.4105 0.9646
4.6024 6.6780 1.2846 0.9677
2.9687 5.6667 1.0132 0.9744
2.1460 5.6718 0.9605 0.9757
1.3944 5.6764 0.9258 0.9766
0.6851 5.6808 0.9063 0.9771
-0.0047 5.6850 0.9004 0.9772
-0.6957 5.6892 0.9078 0.9771
-1.4086 5.6936 0.9290 0.9765
-2.1669 5.6983 0.9656 0.9756
-2.9975 5.6985 1.0198 0.9743
-3.9408 5.6978 1.0973 0.9723
-5.0668 5.7082 1.2089 0.9696
-6.4747 5.7248 1.3689 0.9656
-8.3281 5.7362 1.6016 0.9599
-10.9878 5.7525 1.9644 0.9510
-7.5173 2.8420 1.2729 0.9680
-61.3728 15.0578 10.0088 0.7742
-32.0220 -0.0355 5.0718 0.8784
-67.5148 -16.7233 11.0165 0.7545
-90.8771 -34.5870 15.4007 0.6745
-69.4199 -48.0417 13.3712 0.7104
-72.6697 -64.5402 15.3937 0.6746
-32.1834 -36.4197 7.6978 0.8213
-23.7973 -34.5707 6.6473 0.8437
-18.1024 -34.6004 6.1849 0.8537
-13.0595 -34.5727 5.8534 0.8610
-12.4122 -50.6506 8.2596 0.8096
13.0545 -52.6406 8.5900 0.8028
16.5268 -43.3880 7.3536 0.8286
23.0406 -43.7438 7.8306 0.8185
31.3023 -45.2049 8.7087 0.8004
40.1639 -45.1978 9.5767 0.7828
-32.0952 0.0000 3.9408 0.8787
-69.8839 -17.2280 8.8376 0.7482
-74.9127 -39.3253 10.3885 0.7111
-67.4980 -46.6012 10.0711 0.7185
-31.1446 -35.1655 5.7677 0.8275
-25.2524 -36.5978 5.4595 0.8359
-19.2115 -36.6215 5.0777 0.8465
-14.4210 -38.0496 4.9962 0.8488
-12.4159 -50.4239 6.3762 0.8112
-11.4295 -94.3316 11.6672 0.6819
11.0383 -44.7224 5.6560 0.8306
15.9342 -41.9719 5.5124 0.8345
23.1064 -43.9870 6.1007 0.8185
31.1852 -45.1425 6.7368 0.8016
40.0737 -45.1970 7.4167 0.7839
51.0691 -45.2045 8.3741 0.7597
49.5649 -34.1795 7.3925 0.7846
53.0018 -27.7858 7.3479 0.7857
53.4956 -20.2582 7.0236 0.7941
53.5392 -13.1672 6.7697 0.8008
53.5804 -6.4769 6.6267 0.8045
49.9376 0.0277 6.1316 0.8177
48.0504 5.8624 5.9436 0.8228
49.3974 12.2066 6.2477 0.8146
42.5524 16.1681 5.5892 0.8324
32.7749 17.2283 4.5464 0.8614
24.2996 16.7966 3.6270 0.8878
24.3291 21.5834 3.9933 0.8772
5.9008 6.6700 1.0935 0.9647
4.4008 6.3856 0.9522 0.9692
2.9687 5.6667 0.7855 0.9745
2.1460 5.6718 0.7446 0.9759
1.3944 5.6764 0.7177 0.9767
0.6851 5.6808 0.7026 0.9772
-0.0047 5.6850 0.6980 0.9773
-0.6957 5.6892 0.7038 0.9772
-1.4086 5.6936 0.7202 0.9766
-2.1669 5.6983 0.7485 0.9757
-2.9975 5.6985 0.7906 0.9744
-3.9293 5.6811 0.8481 0.9725
-5.0412 5.6794 0.9324 0.9699
-6.4422 5.6961 1.0559 0.9659
-8.3281 5.7362 1.2416 0.9601
-10.9878 5.7525 1.5228 0.9512
-7.5172 2.8420 0.9868 0.9681
-32.0523 -0.0355 3.9355 0.8788
-69.8655 -17.3056 8.8375 0.7482
-74.9007 -39.4249 10.3929 0.7110
-31.1056 -35.2000 5.7677 0.8275
-25.1929 -36.5982 5.4554 0.8361
-19.1600 -36.6219 5.0748 0.8466
-14.3926 -38.1018 5.0009 0.8486
-12.4122 -50.6507 6.4031 0.8105
-11.3999 -94.9684 11.7444 0.6801
11.0900 -44.7192 5.6571 0.8305
16.0011 -42.0078 5.5194 0.8343
23.1689 -43.9873 6.1044 0.8184
31.2595 -45.1431 6.7420 0.8015
40.1637 -45.1975 7.4241 0.7837
-32.1254 0.0000 2.8106 0.8790
-69.9349 -17.2406 6.3016 0.7489
-23.5426 -26.5821 3.1066 0.8671
-23.8535 -34.5704 3.6746 0.8448
-18.1511 -34.6001 3.4184 0.8548
-13.1253 -34.6309 3.2401 0.8618
-12.4578 -50.5941 4.5586 0.8112
-11.4295 -94.3316 8.3133 0.6828
11.0862 -91.0761 8.0269 0.6918
11.4070 -46.2165 4.1648 0.8260
17.1504 -45.1755 4.2276 0.8236
22.9785 -43.7434 4.3229 0.8200
31.1852 -45.1425 4.8002 0.8023
40.0739 -45.1971 5.2847 0.7846
51.0691 -45.2045 5.9669 0.7604
49.1168 -33.8705 5.2198 0.7870
42.9873 -22.5358 4.2464 0.8229
53.5029 -20.2610 5.0053 0.7948
53.6391 -13.1918 4.8327 0.8011
53.5804 -6.4769 4.7218 0.8052
53.6204 0.0297 4.6912 0.8063
42.7818 5.2196 3.7707 0.8411
22.4475 5.5470 2.0230 0.9113
42.5524 16.1681 3.9825 0.8330
32.7749 17.2283 3.2395 0.8618
24.2996 16.7966 2.5844 0.8882
24.3291 21.5834 2.8454 0.8776
23.8623 26.9732 3.1508 0.8654
4.4008 6.3856 0.6785 0.9693
2.9687 5.6667 0.5597 0.9746
2.1460 5.6718 0.5305 0.9759
1.3944 5.6764 0.5114 0.9768
0.6851 5.6808 0.5006 0.9773
-0.0047 5.6850 0.4974 0.9774
-0.6957 5.6892 0.5015 0.9772
-1.4086 5.6936 0.5131 0.9767
-2.1669 5.6983 0.5334 0.9758
-2.9975 5.6985 0.5633 0.9745
-3.9179 5.6647 0.6026 0.9727
-5.0258 5.6621 0.6624 0.9701
-6.3948 5.6542 0.7468 0.9663
-8.3281 5.7362 0.8847 0.9602
-10.9694 5.7429 1.0833 0.9515
-7.5172 2.8420 0.7031 0.9682
-23.7663 5.8310 2.1410 0.9064
-32.0824 -0.0355 2.8068 0.8791
-68.6208 -16.9973 6.1850 0.7529
-23.5213 -26.6174 3.1077 0.8671
-23.7973 -34.5708 3.6719 0.8449
-18.1024 -34.6004 3.4164 0.8549
-13.0816 -34.6312 3.2388 0.8619
-12.4122 -50.6507 4.5625 0.8111
-11.3999 -94.9684 8.3683 0.6811
11.1809 -91.0136 8.0225 0.6920
11.4864 -46.3177 4.1750 0.8256
17.1690 -45.0739 4.2198 0.8239
23.0406 -43.7438 4.3255 0.8199
31.2595 -45.1431 4.8039 0.8021
40.1639 -45.1978 5.2900 0.7844
-32.1554 0.0000 1.6852 0.8792
-68.5129 -16.8900 3.6981 0.7538
-32.0108 -36.1436 2.5303 0.8242
-23.1415 -33.5385 2.1355 0.8494
-18.6683 -35.5860 2.1060 0.8513
-14.2730 -37.6591 2.1106 0.8510
-11.4888 -46.6590 2.5183 0.8249
-11.4295 -94.3316 4.9799 0.6834
13.4733 -54.5881 2.9467 0.7983
19.5475 -51.4896 2.8864 0.8020
23.6625 -45.0454 2.6666 0.8156
23.6806 -34.2791 2.1835 0.8463
24.1504 -27.2379 1.9078 0.8643
30.8179 -27.2789 2.1569 0.8480
39.6367 -27.3331 2.5233 0.8246
41.0104 -21.4994 2.4267 0.8307
63.4065 -24.0114 3.5533 0.7622
65.4504 -16.0966 3.5323 0.7634
67.0070 -8.0999 3.5372 0.7631
66.9536 0.0371 3.5089 0.7648
40.6083 4.9545 2.1440 0.8489
22.4475 5.5470 1.2118 0.9115
42.7677 16.2499 2.3977 0.8326
32.7749 17.2283 1.9405 0.8622
24.2996 16.7966 1.5481 0.8884
24.3291 21.5834 1.7045 0.8779
23.8623 26.9732 1.8874 0.8657
4.4008 6.3856 0.4064 0.9694
2.9687 5.6667 0.3353 0.9747
2.1460 5.6718 0.3178 0.9760
1.3944 5.6764 0.3063 0.9769
0.6851 5.6808 0.2999 0.9773
-0.0047 5.6850 0.2979 0.9775
-0.6957 5.6892 0.3004 0.9773
-1.4086 5.6936 0.3074 0.9768
-2.1669 5.6983 0.3195 0.9759
-2.9975 5.6985 0.3374 0.9745
-3.9116 5.6556 0.3604 0.9728
-5.0107 5.6450 0.3956 0.9702
-6.3484 5.6131 0.4441 0.9666
-8.3281 5.7362 0.5300 0.9603
-10.9694 5.7429 0.6489 0.9516
-7.5171 2.8419 0.4212 0.9683
-23.7451 5.8258 1.2813 0.9067
-32.1124 -0.0356 1.6829 0.8793
-68.4422 -16.9530 3.6953 0.7539
-31.9398 -36.1440 2.5278 0.8243
-23.0870 -33.5389 2.1339 0.8495
-18.6170 -35.5841 2.1047 0.8514
-14.2738 -37.7874 2.1169 0.8506
-11.4902 -46.8884 2.5300 0.8242
-11.4000 -94.9688 5.0128 0.6817
11.5196 -93.7706 4.9512 0.6849
13.5268 -54.5452 2.9452 0.7984
19.5485 -51.3208 2.8781 0.8025
23.7264 -45.0458 2.6682 0.8155
23.6811 -34.1988 2.1800 0.8465
24.2046 -27.2382 1.9097 0.8642
-32.1854 0.0000 0.5618 0.8792
-86.4114 -10.4942 1.5194 0.7059
-65.5193 -16.1520 1.1779 0.7634
-72.5729 -38.0971 1.4307 0.7204
-21.9847 -24.8231 0.5788 0.8758
-15.6684 -22.7079 0.4816 0.8955
-17.3428 -33.0593 0.6516 0.8613
-10.1864 -26.8766 0.5017 0.8914
-12.4159 -50.4241 0.9064 0.8124
-11.4005 -94.0924 1.6544 0.6844
22.3419 -90.5200 1.6274 0.6887
18.8416 -49.6302 0.9270 0.8087
22.1192 -42.1076 0.8302 0.8267
23.6806 -34.2791 0.7272 0.8465
24.1504 -27.2379 0.6354 0.8645
30.8179 -27.2789 0.7184 0.8482
39.6367 -27.3331 0.8404 0.8248
42.3135 -22.1826 0.8339 0.8260
73.0475 -27.6624 1.3634 0.7316
86.9619 -21.3870 1.5629 0.6989
42.5269 5.1885 0.7478 0.8425
22.4475 5.5470 0.4036 0.9116
44.1635 16.7802 0.8246 0.8278
32.7749 17.2283 0.6463 0.8623
24.2996 16.7965 0.5156 0.8885
24.3291 21.5834 0.5677 0.8780
23.8623 26.9732 0.6286 0.8658
4.4008 6.3856 0.1354 0.9695
2.9687 5.6667 0.1117 0.9747
2.1460 5.6718 0.1059 0.9760
1.3944 5.6764 0.1020 0.9769
0.6851 5.6808 0.0999 0.9774
-0.0047 5.6850 0.0992 0.9775
-0.6957 5.6892 0.1000 0.9773
-1.4086 5.6936 0.1024 0.9768
-2.1669 5.6983 0.1064 0.9759
-2.9975 5.6985 0.1124 0.9746
-3.9116 5.6556 0.1200 0.9729
-4.9956 5.6280 0.1314 0.9703
-6.3028 5.5728 0.1469 0.9669
-8.3281 5.7362 0.1765 0.9604
-10.9694 5.7429 0.2161 0.9517
-7.5171 2.8419 0.1403 0.9684
-23.5511 5.7783 0.4233 0.9075
-32.1423 -0.0356 0.5610 0.8793
-86.3099 -10.5788 1.5178 0.7062
-65.4635 -16.2152 1.1772 0.7635
-72.6637 -38.2475 1.4333 0.7200
-21.9038 -24.7870 0.5774 0.8760
-26.3603 -38.2941 0.8115 0.8303
-12.6828 -24.2415 0.4775 0.8963
-10.3604 -27.4274 0.5118 0.8893
-12.4122 -50.6505 0.9103 0.8117
-11.3999 -94.9687 1.6696 0.6820
22.4484 -90.5206 1.6279 0.6886
18.9130 -49.6523 0.9274 0.8085
22.1791 -42.1082 0.8307 0.8266
23.6811 -34.1988 0.7261 0.8467
24.2046 -27.2382 0.6360 0.8644
-32.2154 0.0000 -0.5623 0.8791
-60.7747 -7.3807 -1.0686 0.7828
-55.4295 -13.6647 -0.9965 0.7958
-62.6348 -23.7588 -1.1693 0.7649
-68.6348 -36.0298 -1.3531 0.7334
-66.6986 -46.0492 -1.4147 0.7231
-10.2729 -9.1034 -0.2396 0.9466
-19.7217 -22.2679 -0.5192 0.8878
-15.4348 -22.3694 -0.4744 0.8970
-12.6223 -24.0610 -0.4743 0.8970
-9.9529 -26.2606 -0.4902 0.8937
-8.4710 -34.4028 -0.6184 0.8678
-8.7752 -72.4248 -1.2734 0.7469
0.0270 -97.4938 -1.7018 0.6770
11.7805 -96.7795 -1.7018 0.6770
20.6322 -83.5929 -1.5029 0.7086
15.0084 -39.5333 -0.7381 0.8444
22.0063 -41.8926 -0.8260 0.8275
23.6806 -34.2791 -0.7272 0.8465
24.1504 -27.2379 -0.6354 0.8645
30.8179 -27.2789 -0.7184 0.8482
39.6367 -27.3331 -0.8404 0.8248
32.2411 -16.9021 -0.6354 0.8645
39.9412 -15.1253 -0.7455 0.8429
86.2055 -21.2010 -1.5496 0.7011
96.7893 -11.7000 -1.7018 0.6770
53.9255 0.0299 -0.9413 0.8059
40.2924 4.9159 -0.7085 0.8501
22.4475 5.5470 -0.4036 0.9116
18.6043 7.0688 -0.3474 0.9235
18.6299 9.7929 -0.3674 0.9192
18.8208 13.0094 -0.3994 0.9125
24.3291 21.5834 -0.5677 0.8780
23.8623 26.9732 -0.6286 0.8658
4.4008 6.3856 -0.1354 0.9695
2.9687 5.6667 -0.1117 0.9747
2.1460 5.6718 -0.1059 0.9760
1.3944 5.6764 -0.1020 0.9769
0.6851 5.6808 -0.0999 0.9774
-0.0047 5.6850 -0.0992 0.9775
-0.6957 5.6892 -0.1000 0.9773
-1.4086 5.6936 -0.1024 0.9768
-2.1669 5.6983 -0.1064 0.9759
-2.9975 5.6985 -0.1124 0.9746
-3.9116 5.6556 -0.1200 0.9729
-4.9807 5.6112 -0.1310 0.9704
-6.2756 5.5488 -0.1462 0.9670
-8.3281 5.7362 -0.1765 0.9604
-10.9694 5.7429 -0.2161 0.9517
-7.5170 2.8419 -0.1403 0.9684
-23.3906 5.7389 -0.4204 0.9081
-35.4394 4.2641 -0.6231 0.8669
-32.1722 -0.0356 -0.5616 0.8792
-59.2528 -7.2624 -1.0420 0.7876
-55.5193 -13.7521 -0.9984 0.7955
-62.7990 -23.9007 -1.1729 0.7643
-68.6651 -36.1428 -1.3544 0.7331
-66.7354 -46.1839 -1.4166 0.7228
-10.2540 -9.1069 -0.2394 0.9466
-19.7164 -22.3117 -0.5197 0.8877
-15.4990 -22.5157 -0.4771 0.8964
-12.5871 -24.0587 -0.4739 0.8971
-9.9796 -26.4193 -0.4930 0.8932
-8.4357 -34.4235 -0.6186 0.8678
-8.7348 -72.7669 -1.2793 0.7459
0.1350 -97.4938 -1.7018 0.6770
11.8876 -96.7664 -1.7018 0.6770
21.3681 -86.1642 -1.5496 0.7011
18.9197 -49.6700 -0.9278 0.8084
22.0658 -41.8931 -0.8265 0.8274
23.6811 -34.1988 -0.7261 0.8467
24.2046 -27.2382 -0.6360 0.8644
-29.5672 0.0000 -1.5496 0.8883
-32.2346 -3.9147 -1.7018 0.8780
-8.9379 -2.2034 -0.4824 0.9638
-8.6344 -3.2752 -0.4840 0.9637
-28.7507 -15.0926 -1.7018 0.8780
-12.5379 -8.6562 -0.7985 0.9408
-9.6757 -8.5742 -0.6775 0.9495
-8.7699 -9.9021 -0.6932 0.9484
-15.3097 -22.1880 -1.4128 0.8976
-12.4385 -23.7107 -1.4032 0.8983
-9.8492 -25.9869 -1.4565 0.8947
-7.0692 -28.7097 -1.5496 0.8883
-1.0599 -8.7476 -0.4618 0.9653
0.0024 -8.7671 -0.4595 0.9655
3.9236 -32.2335 -1.7018 0.8780
7.7810 -31.5253 -1.7018 0.8780
11.5249 -30.3574 -1.7018 0.8780
13.7501 -26.1755 -1.5496 0.8883
16.8055 -24.3269 -1.5496 0.8883
19.6157 -22.1235 -1.5496 0.8883
22.1397 -19.5973 -1.5496 0.8883
25.1163 -17.3200 -1.5989 0.8850
28.7591 -15.0767 -1.7018 0.8780
30.3669 -11.4996 -1.7018 0.8780
31.5318 -7.7548 -1.7018 0.8780
32.2367 -3.8968 -1.7018 0.8780
32.4714 0.0180 -1.7018 0.8780
29.3496 3.5808 -1.5496 0.8883
22.4475 5.5470 -1.2118 0.9115
18.9226 7.1898 -1.0609 0.9221
18.9674 9.9703 -1.1230 0.9177
8.1860 5.6584 -0.5215 0.9609
6.3858 5.6651 -0.4474 0.9664
20.3041 22.9510 -1.6059 0.8845
4.4008 6.3856 -0.4064 0.9694
2.9687 5.6667 -0.3353 0.9747
2.1460 5.6718 -0.3178 0.9760
1.3944 5.6764 -0.3063 0.9769
0.6851 5.6808 -0.2999 0.9773
-0.0047 5.6850 -0.2979 0.9775
-0.6957 5.6892 -0.3004 0.9773
-1.4086 5.6936 -0.3074 0.9768
-2.1669 5.6983 -0.3195 0.9759
-2.9914 5.6870 -0.3368 0.9746
-3.8900 5.6244 -0.3584 0.9730
-4.9403 5.5657 -0.3900 0.9706
-6.2126 5.4930 -0.4346 0.9673
-8.3281 5.7362 -0.5300 0.9603
-10.9344 5.7246 -0.6468 0.9518
-7.5169 2.8419 -0.4211 0.9683
-23.2394 5.7018 -1.2540 0.9086
-29.3555 3.5321 -1.5496 0.8883
-29.5672 -0.0328 -1.5496 0.8883
-32.2302 -3.9504 -1.7018 0.8780
-8.9064 -2.2061 -0.4809 0.9639
-8.6350 -3.2864 -0.4842 0.9637
-28.7340 -15.1245 -1.7018 0.8780
-12.5048 -8.6538 -0.7970 0.9409
-9.6546 -8.5746 -0.6767 0.9496
-8.7864 -9.9429 -0.6954 0.9482
-15.2832 -22.2021 -1.4126 0.8977
-12.4123 -23.7246 -1.4032 0.8983
-9.8345 -26.0350 -1.4585 0.8945
-7.0374 -28.7175 -1.5496 0.8883
-1.0501 -8.7476 -0.4617 0.9653
0.0121 -8.7685 -0.4595 0.9655
3.9593 -32.2291 -1.7018 0.8780
7.8159 -31.5167 -1.7018 0.8780
11.5585 -30.3446 -1.7018 0.8780
13.7790 -26.1603 -1.5496 0.8883
16.8324 -24.3083 -1.5496 0.8883
19.6402 -22.1017 -1.5496 0.8883
-19.4511 0.0000 -1.7018 0.9249
-19.3092 -2.3450 -1.7018 0.9249
-8.4286 -2.0779 -0.7595 0.9657
-7.9355 -3.0101 -0.7425 0.9665
-17.2223 -9.0408 -1.7018 0.9249
-12.2795 -8.4778 -1.3055 0.9418
-9.5671 -8.4778 -1.1184 0.9500
-8.6401 -9.7555 -1.1401 0.9490
-11.0468 -16.0098 -1.7018 0.9249
-9.0361 -17.2248 -1.7018 0.9249
-6.8936 -18.1886 -1.7018 0.9249
-2.1314 -8.6561 -0.7799 0.9648
-1.0444 -8.6196 -0.7596 0.9657
0.0024 -8.6033 -0.7527 0.9660
1.0602 -8.7101 -0.7677 0.9654
4.6610 -18.8844 -1.7018 0.9249
6.9036 -18.1847 -1.7018 0.9249
9.0456 -17.2198 -1.7018 0.9249
11.0556 -16.0037 -1.7018 0.9249
12.9044 -14.5541 -1.7018 0.9249
14.5649 -12.8923 -1.7018 0.9249
16.0129 -11.0423 -1.7018 0.9249
17.2273 -9.0313 -1.7018 0.9249
18.1905 -6.8885 -1.7018 0.9249
18.8883 -4.6453 -1.7018 0.9249
19.3105 -2.3343 -1.7018 0.9249
19.4511 0.0108 -1.7018 0.9249
17.5811 2.1450 -1.5496 0.9314
17.1943 4.2489 -1.5496 0.9314
16.5566 6.2908 -1.5496 0.9314
15.6951 8.2502 -1.5513 0.9313
14.6516 10.1276 -1.5583 0.9310
13.3792 11.8692 -1.5648 0.9307
6.0775 6.8698 -0.8025 0.9638
4.4008 6.3856 -0.6785 0.9693
2.9687 5.6667 -0.5597 0.9746
2.1460 5.6718 -0.5305 0.9759
1.3944 5.6764 -0.5114 0.9768
0.6851 5.6808 -0.5006 0.9773
-0.0047 5.6850 -0.4974 0.9774
-0.6957 5.6892 -0.5015 0.9772
-1.4086 5.6936 -0.5131 0.9767
-2.1669 5.6983 -0.5334 0.9758
-2.9914 5.6870 -0.5622 0.9745
-3.8522 5.5697 -0.5925 0.9732
-4.8881 5.5069 -0.6442 0.9709
-6.0722 5.3689 -0.7091 0.9680
-8.3281 5.7362 -0.8847 0.9602
-10.9344 5.7246 -1.0798 0.9517
-7.5169 2.8418 -0.7031 0.9682
-17.2013 4.2203 -1.5496 0.9314
-17.5846 2.1158 -1.5496 0.9314
-19.4511 -0.0215 -1.7018 0.9249
-19.3066 -2.3664 -1.7018 0.9249
-8.4004 -2.0808 -0.7571 0.9658
-7.9366 -3.0206 -0.7429 0.9665
-17.2123 -9.0599 -1.7018 0.9249
-12.2504 -8.4778 -1.3034 0.9419
-9.5457 -8.4778 -1.1170 0.9500
-8.6434 -9.7811 -1.1420 0.9489
-11.0290 -16.0221 -1.7018 0.9249
-9.0170 -17.2348 -1.7018 0.9249
-6.8734 -18.1962 -1.7018 0.9249
-2.1211 -8.6558 -0.7797 0.9648
-1.0347 -8.6197 -0.7595 0.9657
0.0119 -8.6033 -0.7527 0.9660
1.0703 -8.7126 -0.7680 0.9654
4.6819 -18.8792 -1.7018 0.9249
6.9238 -18.1771 -1.7018 0.9249
9.0647 -17.2098 -1.7018 0.9249
11.0733 -15.9915 -1.7018 0.9249
12.9205 -14.5398 -1.7018 0.9249
-13.8597 0.0000 -1.7018 0.9457
-13.7586 -1.6709 -1.7018 0.9457
-8.1187 -2.0014 -1.0267 0.9669
-7.1879 -2.7265 -0.9439 0.9695
-12.2716 -6.4420 -1.7018 0.9457
-11.4055 -7.8744 -1.7018 0.9457
-9.5671 -8.4778 -1.5695 0.9498
-9.1891 -10.3755 -1.7018 0.9457
-7.8712 -11.4076 -1.7018 0.9457
-6.4386 -12.2733 -1.7018 0.9457
-4.9119 -12.9600 -1.7018 0.9457
-2.1080 -8.5612 -1.0826 0.9651
-1.0360 -8.5506 -1.0576 0.9659
0.0024 -8.5390 -1.0485 0.9662
1.0531 -8.6515 -1.0701 0.9655
3.3211 -13.4559 -1.7018 0.9457
4.9191 -12.9573 -1.7018 0.9457
6.4454 -12.2698 -1.7018 0.9457
7.8776 -11.4033 -1.7018 0.9457
9.1949 -10.3704 -1.7018 0.9457
10.3780 -9.1862 -1.7018 0.9457
11.4098 -7.8681 -1.7018 0.9457
12.2751 -6.4352 -1.7018 0.9457
12.9614 -4.9083 -1.7018 0.9457
13.4586 -3.3100 -1.7018 0.9457
4.0359 -0.4879 -0.4992 0.9838
13.8597 0.0077 -1.7018 0.9457
12.7853 1.5599 -1.5815 0.9494
12.2516 3.0275 -1.5496 0.9504
11.7972 4.4824 -1.5496 0.9504
11.1708 5.8720 -1.5496 0.9504
10.3814 7.1759 -1.5496 0.9504
9.4543 8.3873 -1.5518 0.9503
6.0775 6.8698 -1.1262 0.9637
4.4008 6.3856 -0.9522 0.9692
2.9687 5.6667 -0.7855 0.9745
2.1460 5.6718 -0.7446 0.9759
1.3944 5.6764 -0.7177 0.9767
0.6851 5.6808 -0.7026 0.9772
-0.0047 5.6850 -0.6980 0.9773
-0.6957 5.6892 -0.7038 0.9772
-1.4086 5.6936 -0.7202 0.9766
-2.1669 5.6983 -0.7485 0.9757
-2.9914 5.6870 -0.7890 0.9744
-3.8262 5.5321 -0.8259 0.9733
-4.8367 5.4489 -0.8946 0.9711
-5.9311 5.2442 -0.9721 0.9686
-8.3281 5.7362 -1.2416 0.9601
-11.1805 5.8534 -1.5496 0.9504
-7.4307 2.8092 -0.9754 0.9685
-12.2566 3.0071 -1.5496 0.9504
-13.1329 1.5802 -1.6241 0.9481
-13.8597 -0.0154 -1.7018 0.9457
-13.7567 -1.6861 -1.7018 0.9457
-8.0796 -2.0013 -1.0220 0.9670
-7.1865 -2.7351 -0.9441 0.9695
-12.2644 -6.4555 -1.7018 0.9457
-11.3967 -7.8870 -1.7018 0.9457
-9.5457 -8.4778 -1.5676 0.9498
-9.1776 -10.3856 -1.7018 0.9457
-7.8586 -11.4163 -1.7018 0.9457
-6.4250 -12.2805 -1.7018 0.9457
-4.8976 -12.9655 -1.7018 0.9457
-2.0982 -8.5621 -1.0824 0.9651
-1.0264 -8.5503 -1.0574 0.9659
0.0118 -8.5386 -1.0484 0.9662
1.0633 -8.6550 -1.0707 0.9655
3.3360 -13.4522 -1.7018 0.9457
4.9335 -12.9519 -1.7018 0.9457
6.4589 -12.2626 -1.7018 0.9457
7.8902 -11.3945 -1.7018 0.9457
9.2063 -10.3602 -1.7018 0.9457
-10.7444 0.0000 -1.7018 0.9574
-10.6661 -1.2953 -1.7018 0.9574
-8.0623 -1.9875 -1.3152 0.9669
-6.9991 -2.6549 -1.1856 0.9701
-7.2250 -3.7927 -1.2924 0.9675
-8.8418 -6.1045 -1.7018 0.9574
-8.0414 -7.1259 -1.7018 0.9574
-7.1237 -8.0434 -1.7018 0.9574
-6.1020 -8.8435 -1.7018 0.9574
-4.9914 -9.5147 -1.7018 0.9574
-3.8079 -10.0470 -1.7018 0.9574
-2.1132 -8.5822 -1.3999 0.9648
-1.0377 -8.5643 -1.3664 0.9657
0.0024 -8.5599 -1.3558 0.9659
1.0555 -8.6716 -1.3836 0.9652
2.5746 -10.4314 -1.7018 0.9574
3.8134 -10.0449 -1.7018 0.9574
4.9966 -9.5119 -1.7018 0.9574
6.1069 -8.8401 -1.7018 0.9574
7.1281 -8.0394 -1.7018 0.9574
8.0454 -7.1214 -1.7018 0.9574
8.8452 -6.0996 -1.7018 0.9574
9.5161 -4.9887 -1.7018 0.9574
10.0481 -3.8051 -1.7018 0.9574
10.4335 -2.5660 -1.7018 0.9574
10.6668 -1.2894 -1.7018 0.9574
10.7444 0.0060 -1.7018 0.9574
10.3794 1.2663 -1.6561 0.9585
9.4978 2.3470 -1.5496 0.9612
9.1456 3.4749 -1.5496 0.9612
8.6599 4.5521 -1.5496 0.9612
8.0480 5.5630 -1.5496 0.9612
7.3186 6.4927 -1.5496 0.9612
6.0775 6.8698 -1.4527 0.9635
4.4008 6.3856 -1.2283 0.9691
2.9687 5.6667 -1.0132 0.9744
2.1460 5.6718 -0.9605 0.9757
1.3944 5.6764 -0.9258 0.9766
0.6851 5.6808 -0.9063 0.9771
-0.0047 5.6850 -0.9004 0.9772
-0.6957 5.6892 -0.9078 0.9771
-1.4086 5.6936 -0.9290 0.9765
-2.1669 5.6983 -0.9656 0.9756
-2.9914 5.6870 -1.0177 0.9743
-3.8262 5.5321 -1.0654 0.9731
-4.7859 5.3917 -1.1419 0.9712
-7.3294 6.4805 -1.5496 0.9612
-8.0572 5.5496 -1.5496 0.9612
-8.6675 4.5378 -1.5496 0.9612
-7.3945 2.7955 -1.2521 0.9685
-9.5017 2.3312 -1.5496 0.9612
-10.6532 1.2818 -1.6995 0.9575
-10.7444 -0.0119 -1.7018 0.9574
-10.6646 -1.3071 -1.7018 0.9574
-8.0241 -1.9875 -1.3093 0.9671
-6.9982 -2.6635 -1.1860 0.9701
-7.2356 -3.8086 -1.2951 0.9674
-8.8351 -6.1143 -1.7018 0.9574
-8.0335 -7.1348 -1.7018 0.9574
-7.1148 -8.0513 -1.7018 0.9574
-6.0922 -8.8503 -1.7018 0.9574
-4.9808 -9.5202 -1.7018 0.9574
-3.7968 -10.0512 -1.7018 0.9574
-2.1031 -8.5823 -1.3995 0.9648
-1.0280 -8.5642 -1.3662 0.9657
0.0122 -8.8475 -1.4013 0.9648
1.0664 -8.6808 -1.3852 0.9652
2.5862 -10.4285 -1.7018 0.9574
3.8246 -10.0407 -1.7018 0.9574
5.0072 -9.5064 -1.7018 0.9574
6.1167 -8.8334 -1.7018 0.9574
7.1370 -8.0315 -1.7018 0.9574
-8.7548 0.0000 -1.7018 0.9650
-8.6909 -1.0554 -1.7018 0.9650
-8.5003 -2.0955 -1.7018 0.9650
-8.1856 -3.1050 -1.7018 0.9650
-7.7516 -4.0692 -1.7018 0.9650
-7.2045 -4.9740 -1.7018 0.9650
-6.5523 -5.8063 -1.7018 0.9650
-5.8045 -6.5539 -1.7018 0.9650
-4.9720 -7.2059 -1.7018 0.9650
-4.0671 -7.7527 -1.7018 0.9650
-3.1027 -8.1865 -1.7018 0.9650
-2.0932 -8.5008 -1.7018 0.9650
-1.0531 -8.6912 -1.7018 0.9650
0.0024 -8.7547 -1.7018 0.9650
1.0579 -8.6906 -1.7018 0.9650
2.0979 -8.4997 -1.7018 0.9650
3.1073 -8.1848 -1.7018 0.9650
4.0713 -7.7505 -1.7018 0.9650
4.9760 -7.2031 -1.7018 0.9650
5.8081 -6.5507 -1.7018 0.9650
6.5555 -5.8027 -1.7018 0.9650
7.2072 -4.9700 -1.7018 0.9650
7.7539 -4.0649 -1.7018 0.9650
8.1874 -3.1005 -1.7018 0.9650
8.5014 -2.0908 -1.7018 0.9650
3.9970 -0.4832 -0.7826 0.9837
8.7548 0.0048 -1.7018 0.9650
8.5900 1.0480 -1.6821 0.9654
7.7390 1.9124 -1.5496 0.9680
7.4520 2.8314 -1.5496 0.9680
7.0563 3.7092 -1.5496 0.9680
6.5576 4.5328 -1.5496 0.9680
5.9633 5.2903 -1.5496 0.9680
5.2821 5.9707 -1.5496 0.9680
4.3923 6.3732 -1.5045 0.9690
2.9687 5.6667 -1.2435 0.9743
2.1460 5.6718 -1.1788 0.9756
1.3944 5.6764 -1.1362 0.9765
0.6851 5.6808 -1.1122 0.9770
-0.0047 5.6850 -1.1051 0.9771
-0.6957 5.6892 -1.1141 0.9769
-1.4086 5.6936 -1.1401 0.9764
-2.1669 5.6983 -1.1850 0.9755
-2.9914 5.6870 -1.2490 0.9742
-3.8262 5.5321 -1.3075 0.9730
-5.2920 5.9619 -1.5496 0.9680
-5.9721 5.2804 -1.5496 0.9680
-6.5652 4.5219 -1.5496 0.9680
-7.0624 3.6974 -1.5496 0.9680
-7.3283 2.7705 -1.5229 0.9686
-7.7421 1.8995 -1.5496 0.9680
-8.6921 1.0458 -1.7018 0.9650
-8.7548 -0.0097 -1.7018 0.9650
-8.6897 -1.0651 -1.7018 0.9650
-8.4979 -2.1049 -1.7018 0.9650
-8.1822 -3.1141 -1.7018 0.9650
-7.7471 -4.0778 -1.7018 0.9650
-7.1990 -4.9820 -1.7018 0.9650
-6.5459 -5.8136 -1.7018 0.9650
-5.7972 -6.5603 -1.7018 0.9650
-4.9641 -7.2114 -1.7018 0.9650
-4.0585 -7.7572 -1.7018 0.9650
-3.0937 -8.1899 -1.7018 0.9650
-2.0838 -8.5032 -1.7018 0.9650
-1.0434 -8.6924 -1.7018 0.9650
0.0121 -8.7547 -1.7018 0.9650
1.0675 -8.6894 -1.7018 0.9650
2.1073 -8.4974 -1.7018 0.9650
3.1163 -8.1813 -1.7018 0.9650
4.0799 -7.7460 -1.7018 0.9650
4.9840 -7.1976 -1.7018 0.9650
5.8154 -6.5442 -1.7018 0.9650
-7.3711 0.0000 -1.7018 0.9702
-7.3173 -0.8886 -1.7018 0.9702
-7.1568 -1.7643 -1.7018 0.9702
-6.8919 -2.6143 -1.7018 0.9702
-6.5265 -3.4261 -1.7018 0.9702
-6.0659 -4.1879 -1.7018 0.9702
-5.5167 -4.8886 -1.7018 0.9702
-4.8871 -5.5181 -1.7018 0.9702
-4.1862 -6.0670 -1.7018 0.9702
-3.4243 -6.5274 -1.7018 0.9702
-2.6124 -6.8926 -1.7018 0.9702
-1.7624 -7.1573 -1.7018 0.9702
-0.8866 -7.3176 -1.7018 0.9702
0.0020 -7.3711 -1.7018 0.9702
0.8907 -7.3171 -1.7018 0.9702
1.7663 -7.1563 -1.7018 0.9702
2.6162 -6.8912 -1.7018 0.9702
3.4279 -6.5255 -1.7018 0.9702
4.1728 -6.0404 -1.6949 0.9703
4.8902 -5.5154 -1.7018 0.9702
5.5194 -4.8856 -1.7018 0.9702
6.0682 -4.1846 -1.7018 0.9702
6.5284 -3.4225 -1.7018 0.9702
6.8934 -2.6104 -1.7018 0.9702
7.1578 -1.7604 -1.7018 0.9702
4.0178 -0.4857 -0.9343 0.9835
7.3711 0.0041 -1.7018 0.9702
7.2508 0.8847 -1.6864 0.9705
6.5422 1.6167 -1.5558 0.9727
6.2742 2.3839 -1.5496 0.9728
5.9410 3.1230 -1.5496 0.9728
5.5212 3.8164 -1.5496 0.9728
5.0209 4.4542 -1.5496 0.9728
4.4472 5.0270 -1.5496 0.9728
3.8088 5.5265 -1.5496 0.9728
3.1147 5.9454 -1.5496 0.9728
2.1460 5.6718 -1.4000 0.9754
1.3944 5.6764 -1.3495 0.9763
0.6851 5.6808 -1.3210 0.9768
-0.0047 5.6850 -1.3125 0.9769
-0.6957 5.6892 -1.3233 0.9767
-1.4086 5.6936 -1.3541 0.9762
-2.1669 5.6983 -1.4075 0.9753
-3.1246 5.9402 -1.5496 0.9728
-3.8179 5.5202 -1.5496 0.9728
-4.4556 5.0196 -1.5496 0.9728
-5.0283 4.4459 -1.5496 0.9728
-5.5276 3.8072 -1.5496 0.9728
-5.9462 3.1131 -1.5496 0.9728
-6.2782 2.3735 -1.5496 0.9728
-6.6027 1.6200 -1.5696 0.9725
-7.3183 0.8805 -1.7018 0.9702
-7.3711 -0.0082 -1.7018 0.9702
-7.3163 -0.8967 -1.7018 0.9702
-7.1549 -1.7722 -1.7018 0.9702
-6.8890 -2.6219 -1.7018 0.9702
-6.5227 -3.4333 -1.7018 0.9702
-6.0612 -4.1946 -1.7018 0.9702
-5.5113 -4.8947 -1.7018 0.9702
-4.8810 -5.5235 -1.7018 0.9702
-4.1795 -6.0716 -1.7018 0.9702
-3.4170 -6.5312 -1.7018 0.9702
-2.6047 -6.8955 -1.7018 0.9702
-1.7544 -7.1593 -1.7018 0.9702
-0.8785 -7.3185 -1.7018 0.9702
0.0102 -7.3711 -1.7018 0.9702
0.8988 -7.3161 -1.7018 0.9702
1.7742 -7.1544 -1.7018 0.9702
2.6238 -6.8883 -1.7018 0.9702
3.4351 -6.5217 -1.7018 0.9702
4.1796 -6.0359 -1.6950 0.9703
4.8963 -5.5099 -1.7018 0.9702
-0.9260 0.0000 -0.2481 0.9962
-0.9261 -0.1125 -0.2500 0.9961
-0.8953 -0.2207 -0.2471 0.9962
-0.8774 -0.3328 -0.2515 0.9961
-0.8710 -0.4572 -0.2636 0.9959
-0.8080 -0.5578 -0.2631 0.9959
-4.7533 -4.2121 -1.7018 0.9740
-4.2108 -4.7544 -1.7018 0.9740
-3.6069 -5.2274 -1.7018 0.9740
-2.9504 -5.6241 -1.7018 0.9740
-2.2508 -5.9388 -1.7018 0.9740
-1.5185 -6.1668 -1.7018 0.9740
-0.7639 -6.3049 -1.7018 0.9740
0.0018 -6.3510 -1.7018 0.9740
0.7674 -6.3045 -1.7018 0.9740
1.5219 -6.1660 -1.7018 0.9740
2.2541 -5.9375 -1.7018 0.9740
2.9535 -5.6225 -1.7018 0.9740
3.6098 -5.2254 -1.7018 0.9740
4.2134 -4.7521 -1.7018 0.9740
4.7556 -4.2095 -1.7018 0.9740
5.2284 -3.6054 -1.7018 0.9740
5.6249 -2.9488 -1.7018 0.9740
5.9394 -2.2492 -1.7018 0.9740
6.1672 -1.5167 -1.7018 0.9740
3.8961 -0.4710 -1.0515 0.9839
6.3510 0.0035 -1.7018 0.9740
6.3043 0.7692 -1.7018 0.9740
6.1399 1.5172 -1.6947 0.9741
5.4059 2.0540 -1.5496 0.9763
5.1189 2.6908 -1.5496 0.9763
4.7571 3.2883 -1.5496 0.9763
4.3260 3.8378 -1.5496 0.9763
3.8318 4.3313 -1.5496 0.9763
3.2817 4.7617 -1.5496 0.9763
2.6837 5.1226 -1.5496 0.9763
2.0465 5.4088 -1.5496 0.9763
1.3795 5.6161 -1.5496 0.9763
0.6924 5.7414 -1.5496 0.9763
-0.0048 5.7830 -1.5496 0.9763
-0.7020 5.7402 -1.5496 0.9763
-1.3889 5.6138 -1.5496 0.9763
-2.0555 5.4054 -1.5496 0.9763
-2.6922 5.1181 -1.5496 0.9763
-3.2896 4.7562 -1.5496 0.9763
-3.8390 4.3250 -1.5496 0.9763
-4.3324 3.8306 -1.5496 0.9763
-0.8082 0.5567 -0.2630 0.9959
-0.8713 0.4562 -0.2635 0.9959
-0.8769 0.3315 -0.2512 0.9961
-0.8957 0.2198 -0.2471 0.9962
-0.9263 0.1115 -0.2500 0.9961
-0.9262 -0.0010 -0.2482 0.9962
-0.9260 -0.1135 -0.2500 0.9961
-0.8949 -0.2217 -0.2470 0.9962
-0.8780 -0.3341 -0.2517 0.9961
-0.8706 -0.4582 -0.2636 0.9959
-0.8077 -0.5589 -0.2632 0.9959
-4.7486 -4.2174 -1.7018 0.9740
-4.2055 -4.7591 -1.7018 0.9740
-3.6011 -5.2314 -1.7018 0.9740
-2.9442 -5.6274 -1.7018 0.9740
-2.2443 -5.9413 -1.7018 0.9740
-1.5116 -6.1685 -1.7018 0.9740
-0.7569 -6.3058 -1.7018 0.9740
0.0088 -6.3510 -1.7018 0.9740
0.7744 -6.3036 -1.7018 0.9740
1.5287 -6.1643 -1.7018 0.9740
2.2607 -5.9350 -1.7018 0.9740
2.9597 -5.6192 -1.7018 0.9740
3.6156 -5.2214 -1.7018 0.9740
4.2187 -4.7474 -1.7018 0.9740
